ply
format ascii 1.0
element vertex 344
property float x
property float y
property float z
property uchar red
property uchar green
property uchar blue
property double nx
property double ny
property double nz
end_header
0.627066612243652344 0.00587863102555274963 0.500199377536773682 167 121 79 -0.138791111240399029 -0.98899306765258943 0.0512809864937849441
0.69312208890914917 0.40298151969909668 0.713033437728881836 167 121 79 0.277065184012825871 0.605765532700972664 0.745843819575818134
0.605443954467773438 0.0118192983791232109 0.479312092065811157 167 121 79 -0.537009712643085613 -0.840319446892909494 0.074052654919221278
0.226146668195724487 0.195405229926109314 0.589849770069122314 167 121 79 -0.260819606565457385 -0.834700897794421137 0.485023240734119121
0.767477512359619141 0.355231732130050659 0.701083838939666748 167 121 79 0.502776849988478824 0.206115129268010289 0.839483169934033824
0.489115595817565918 0.948854446411132812 0.281950682401657104 167 121 79 0.699113534401114789 -0.0137877097452182712 0.714877727361234006
0.542551398277282715 0.017335403710603714 0.284507095813751221 167 121 79 -0.116311177265277746 -0.500703373512399241 0.857769107508814299
0.425886839628219604 0.814003646373748779 0.309093743562698364 167 121 79 -0.0134518421167149939 -0.609235035962384486 -0.79287560115038147
0.357800424098968506 0.517983853816986084 0.617415308952331543 167 121 79 0.158171573863863546 0.554216999720963721 0.817205769951315109
0.177920222282409668 0.508146703243255615 0.667871713638305664 167 121 79 0.510995264102929725 -0.822578984684447345 0.249494797580793126
0.82530975341796875 0.221672758460044861 0.285478681325912476 167 121 79 0.65794782438672883 -0.0210483426565650951 -0.752769305734620309
0.0248941686004400253 0.750474631786346436 0.48742637038230896 167 121 79 -0.923994101775240662 0.356899834817131834 -0.137322277115078051
0.857260048389434814 0.484333038330078125 0.509536206722259521 167 121 79 0.850041586479993172 0.511235094501861553 0.126759533780497452
0.0467921160161495209 0.714614510536193848 0.626800239086151123 167 121 79 -0.776160514793921785 0.500989301560809563 0.382863650659665766
0.89395451545715332 0.0473577193915843964 0.4556388258934021 167 121 79 0.437422659726717733 -0.898755195016861408 -0.030008601896914372
0.520915806293487549 0.905045747756958008 0.224348396062850952 167 121 79 -0.556689600384376759 -0.429128016442455573 -0.711298695575948825
0.441217631101608276 0.321201145648956299 0.155199155211448669 167 121 79 -0.445605005427556933 0.142963432970332316 -0.88374070629978585
0.740940272808074951 0.0665922686457633972 0.265080720186233521 167 121 79 0.862766022071419392 -0.221772643209518144 -0.454369547706404975
0.2064628005027771 0.788770198822021484 0.543917238712310791 167 121 79 0.193631799087693429 0.967775358964234944 0.160989381524712649
0.241633772850036621 0.132934719324111938 0.419774860143661499 167 121 79 -0.984958126235384479 0.052393809137763564 0.164658368529862875
0.114030122756958008 0.920734226703643799 0.105653412640094757 167 121 79 -0.359490800621505402 0.804576516821694621 0.472676414524332178
0.490294039249420166 0.847274959087371826 0.280057251453399658 167 121 79 -0.196849594561904345 -0.62417988337309438 -0.756075201493319971
0.651122689247131348 0.034623805433511734 0.578157663345336914 167 121 79 -0.393362885441462418 -0.708780758566260882 0.585572776555914332
0.461396664381027222 0.0301918927580118179 0.529745757579803467 167 121 79 0.0423949028034548842 -0.998997919144923863 0.0143467682910769639
0.976716995239257812 0.11698402464389801 0.450986474752426147 167 121 79 0.85734680837216859 -0.480022396778492011 -0.185835811309575188
0.746961236000061035 0.402827143669128418 0.25165092945098877 167 121 79 0.318986353985651505 0.195857997297024938 -0.927301111217785134
0.163852974772453308 0.219670265913009644 0.586349666118621826 167 121 79 -0.465520046056751124 -0.786673377121567263 0.4055071940760962
0.237998634576797485 0.358321011066436768 0.256761282682418823 167 121 79 -0.265403236334134152 -0.0447251365184714589 -0.963099571335576776
0.205415681004524231 0.773934423923492432 0.312663733959197998 167 121 79 0.981588606563830068 0.109913173940589901 0.156214281224170887
0.332101613283157349 0.181862577795982361 0.655629992485046387 167 121 79 -0.43556415468073062 -0.219622535219622217 0.872954643255287599
0.828451931476593018 0.194493994116783142 0.294764280319213867 167 121 79 0.853276154954055621 -0.158660504536879465 -0.496735993951440358
0.294647216796875 0.0120096541941165924 0.451179265975952148 167 121 79 0.414545067068951389 -0.57781994235382117 0.703048008024363291
0.300330549478530884 0.00813982449471950531 0.6627005934715271 167 121 79 0.0326475412519040414 -0.999260788230468711 0.0202981564489867448
0.297345936298370361 0.0525947622954845428 0.681653201580047607 167 121 79 0.293748218588256504 0.338247127742033749 0.894036277032699611
0.164827942848205566 0.18265397846698761 0.506675601005554199 167 121 79 -0.414486926326324279 -0.885669360496242564 0.209261491399475669
0.120247811079025269 0.289023101329803467 0.332073628902435303 167 121 79 -0.651201230963432076 -0.303650618767071168 -0.695509351852357072
0.611580312252044678 0.632245063781738281 0.493727505207061768 167 121 79 -0.0493054496048400612 0.998755823705947732 -0.0074684170155742231
0.193965017795562744 0.846985220909118652 0.221287861466407776 167 121 79 0.735466551170402716 0.628967274421140421 0.25197047409717499
0.4145660400390625 0.534557938575744629 0.604290246963500977 167 121 79 -0.0885480376784922585 0.688753049536703577 0.719568260679401828
0.110495619475841522 0.261279463768005371 0.582034826278686523 167 121 79 -0.773626134244051467 -0.48277084546335175 0.410408229918949763
0.732540011405944824 0.00705392425879836082 0.405743658542633057 167 121 79 0.0705406450309066652 -0.980167864676585898 -0.185189023578519435
0.172200620174407959 0.715859293937683105 0.668692886829376221 167 121 79 0.473908727092574478 0.435563305602838513 0.765307209686295953
0.173578113317489624 0.228563830256462097 0.343656152486801147 167 121 79 -0.481105552780239254 -0.740686965827393018 -0.468956571270124023
0.312598854303359985 0.866498947143554688 0.406450927257537842 167 121 79 -0.441330309948305355 0.763917453803626967 0.470805353936333604
0.532360196113586426 0.595060646533966064 0.359025508165359497 167 121 79 -0.343800703968507926 0.783844204970840619 -0.517097029854541979
0.530054926872253418 0.613962233066558838 0.413443058729171753 167 121 79 -0.223857470834530781 0.956856325631679328 -0.185239857617653741
0.0239126849919557571 0.747387707233428955 0.486007601022720337 167 121 79 -0.923994101775240662 0.356899834817131834 -0.137322277115078051
0.22372494637966156 0.476357698440551758 0.283106029033660889 167 121 79 -0.332530636407490698 0.281533856382056635 -0.900090030808627928
0.234900906682014465 0.0582699291408061981 0.537036538124084473 167 121 79 -0.495838493586888807 0.620399025333706944 -0.607658816806331825
0.435135185718536377 0.479659855365753174 0.258595883846282959 167 121 79 -0.231949482188607919 0.60056903482692181 -0.765190350252468954
0.388325244188308716 0.539571642875671387 0.309054732322692871 167 121 79 -0.0596628034805318994 0.717770945715107689 -0.693718400626712084
0.682847380638122559 0.344445168972015381 0.74519580602645874 167 121 79 0.371465327498579634 -0.0497664511406443466 0.927112081038338531
0.973841249942779541 0.244509056210517883 0.444331109523773193 167 121 79 0.477662777381328951 0.803630066424599554 -0.354988714528714
0.0521421618759632111 0.351144164800643921 0.398541629314422607 167 121 79 -0.893688165193958439 0.0808802703531281697 -0.441338696762317351
0.157668754458427429 0.374678641557693481 0.665487349033355713 167 121 79 -0.161658827464036592 0.0849878789183196315 0.983180290658797751
0.151591628789901733 0.770409524440765381 0.0955157727003097534 167 121 79 -0.776872145014293913 -0.321176441742035412 -0.541585970618529533
0.139035403728485107 0.790734291076660156 0.475412130355834961 167 121 79 -0.00633168397258774412 0.997772854408775944 -0.0664021142964192623
0.998759746551513672 0.215712249279022217 0.482499957084655762 167 121 79 0.970339483726910035 0.2360915084932807 0.0519815922992040297
0.769337475299835205 0.16310042142868042 0.239697813987731934 167 121 79 0.709854698570855369 -0.0616342113802316807 -0.701646300428083958
0.556112766265869141 0.251796573400497437 0.765507221221923828 167 121 79 -0.282737009171176834 -0.107277512179197704 0.953179583827507226
0.987676620483398438 0.237051099538803101 0.459148138761520386 167 121 79 0.799165589471541371 0.567853975338283301 -0.197170543685187133
0.854748785495758057 0.365167081356048584 0.31089329719543457 167 121 79 0.708228472303811696 0.377342842495006825 -0.596678146269827403
0.0527899600565433502 0.34584537148475647 0.555477142333984375 167 121 79 -0.833164528142859462 -0.341334593241662154 0.43511787426056775
0.373543143272399902 0.836599647998809814 0.386557102203369141 167 121 79 0.635157724864617967 0.348346216286607002 0.689368970975345441
0.186406537890434265 0.0417402759194374084 0.603942751884460449 167 121 79 -0.865541327664316129 0.500800031158835424 -0.00612689941181627021
0.469636589288711548 0.389889746904373169 0.183876067399978638 167 121 79 -0.287618398560812505 0.847031056454358944 -0.447005644495822918
0.343509107828140259 0.875070273876190186 0.408267438411712646 167 121 79 -0.212311343264158847 0.673056411669625931 0.708462391543669301
0.248635724186897278 0.0688969716429710388 0.347437143325805664 167 121 79 -0.303034203143773495 0.564946540918728868 -0.767467053122791287
0.937910795211791992 0.0785939395427703857 0.517563939094543457 167 121 79 0.611871042339846904 -0.767263805743752303 0.192145986014704007
0.682370245456695557 0.240253984928131104 0.189815998077392578 167 121 79 0.271196714370446013 -0.320766431817090691 -0.907502748389230174
0.443205118179321289 0.372365057468414307 0.18009224534034729 167 121 79 -0.564344453794537015 0.620856717666449565 -0.544106858622263823
0.376693934202194214 0.109786093235015869 0.644086301326751709 167 121 79 0.280715409834712382 0.250670581436596762 0.926478881725626757
0.473230928182601929 0.802994132041931152 0.346782714128494263 167 121 79 0.452223071985717484 -0.891675961444984289 -0.0202057651417461709
0.176239371299743652 0.790592551231384277 0.486317336559295654 167 121 79 0.0557365513600516921 0.996817371290579235 -0.056996185274347258
0.538658559322357178 0.0954918190836906433 0.708339393138885498 167 121 79 -0.136808778790877994 -0.674086696635055937 0.725872222547044865
0.556202471256256104 0.0327453278005123138 0.462494969367980957 167 121 79 -0.0323688261163019506 -0.999376319142973979 -0.0141149506585506387
0.660360991954803467 0.586679577827453613 0.607990562915802002 167 121 79 0.0903018466821462473 0.757015691697618731 0.647126586541899251
0.485696882009506226 0.00501935975626111031 0.26501166820526123 167 121 79 -0.0187677075200670292 -0.933831921346986227 0.35721942252324046
0.338688373565673828 0.345840692520141602 0.668593287467956543 167 121 79 -0.0173246333776052031 0.072188266117750019 0.997240548369973001
0.641952812671661377 0.430475085973739624 0.695756971836090088 167 121 79 -0.147199822998579394 0.773275196266734133 0.616747665539019829
0.528834223747253418 0.852785706520080566 0.26399695873260498 167 121 79 -0.150418762239459658 -0.828888547139245091 -0.538811629781448254
0.206260472536087036 0.0209373701363801956 0.34074246883392334 167 121 79 -0.258897410501046199 0.236031343592084525 -0.936622301505771304
0.324437767267227173 0.139644399285316467 0.646339833736419678 167 121 79 -0.404204329473432544 -0.120294711724897238 0.90672379607351028
0.319956839084625244 0.834449291229248047 0.43188360333442688 167 121 79 0.119493164419189904 0.347549807231229857 0.93001640585025358
0.57250058650970459 0.424998193979263306 0.22996346652507782 167 121 79 0.051097195441425651 0.925318033822210562 -0.375733433302679831
0.574033796787261963 0.103339970111846924 0.197159439325332642 167 121 79 0.0187984771866748016 -0.266597250460712143 -0.963624679687195562
0.137593626976013184 0.26246216893196106 0.332655459642410278 167 121 79 -0.582193986324880952 -0.603578796718705846 -0.544741037960922769
0.0848605036735534668 0.777115523815155029 0.455283612012863159 167 121 79 -0.297007936745149304 0.932613270950191864 -0.204984810066437761
0.205134913325309753 0.749241948127746582 0.342586487531661987 167 121 79 0.982461616208953004 0.162686117676664577 0.0911175054058563222
0.0609012097120285034 0.490540146827697754 0.544862329959869385 167 121 79 -0.892089305640788477 -0.369405178247216137 0.260223913285229258
0.334442943334579468 0.556721746921539307 0.582542061805725098 167 121 79 -0.162635849249366082 0.771761203939117069 0.61476355180945963
0.889551520347595215 0.36154484748840332 0.55347895622253418 167 121 79 0.926223824863607437 0.157551669864421873 0.342471747123703263
0.619989275932312012 0.549819290637969971 0.295954644680023193 167 121 79 -0.103761998083777215 0.790960731127636985 -0.603004618197652054
0.662483513355255127 0.0330726690590381622 0.590417623519897461 167 121 79 -0.589889828491291124 -0.784476811913393135 0.19137952297127872
0.719077765941619873 0.140507087111473083 0.705511331558227539 167 121 79 0.0964646187972507396 -0.323784805397229869 0.941200285334730991
0.751004874706268311 0.00897835288196802139 0.406390756368637085 167 121 79 0.0591004614942896578 -0.994051942631587915 -0.0914760668236681146
0.386768370866775513 0.605287253856658936 0.456083625555038452 167 121 79 0.357569685180817998 0.933513271105219977 0.0263987293278006227
0.889077246189117432 0.398455202579498291 0.39880409836769104 167 121 79 0.898580549229809566 0.304651890249367452 -0.315816754326525839
0.0896116867661476135 0.627912163734436035 0.732500731945037842 167 121 79 -0.414290839956653889 0.304074868986978386 0.857847057451712858
0.442234277725219727 0.00906328950077295303 0.679640889167785645 167 121 79 0.170570198495647252 -0.984784755820363289 0.0332384128529504275
0.879973769187927246 0.383868396282196045 0.568688809871673584 167 121 79 0.880536352385807297 0.152390125021706485 0.448812858464378128
0.437569707632064819 0.498775333166122437 0.274816215038299561 167 121 79 -0.282043720705121126 0.723028097615616816 -0.630620099322209859
0.696374773979187012 0.616524636745452881 0.413253724575042725 167 121 79 0.327359288235633872 0.923350584986631473 -0.200647934479038059
0.663361012935638428 0.400126218795776367 0.215479031205177307 167 121 79 0.316623038374104548 0.734683868076879576 -0.599991221234398187
0.601364731788635254 0.117548957467079163 0.196037217974662781 167 121 79 0.158450189081040166 0.0641113578143811258 -0.985283345733286464
0.105736330151557922 0.855486273765563965 0.210426822304725647 167 121 79 -0.843923098055056498 0.458035112485404572 0.279280576302109562
0.174990296363830566 0.782630681991577148 0.412374258041381836 167 121 79 0.285214596015283928 0.957860458008577775 -0.0339996647547578731
0.744295001029968262 0.0186331700533628464 0.378344148397445679 167 121 79 0.985462656997784903 -0.169868442925803748 -0.002839676183844331
0.472609221935272217 0.826076924800872803 0.360725432634353638 167 121 79 0.210939087153437843 0.831260405854449491 0.514306172595245248
0.330793201923370361 0.450316429138183594 0.258562147617340088 167 121 79 0.0397373383119598161 0.241197634376205255 -0.969662129360120528
0.178547412157058716 0.900619804859161377 0.103414110839366913 167 121 79 0.601539326948058894 0.756876854769624852 0.255514901422434548
0.440818220376968384 0.250149369239807129 0.162650331854820251 167 121 79 -0.528979288772445821 -0.237929291228302864 -0.814598406839465272
0.155514523386955261 0.21195925772190094 0.558781206607818604 167 121 79 -0.556815604659316565 -0.763217651338996217 0.327803598351918857
0.621848821640014648 0.271757006645202637 0.16697421669960022 167 121 79 0.145327332901301232 0.0415460462847704326 -0.988510947005594942
0.188174337148666382 0.493301510810852051 0.308338582515716553 167 121 79 -0.494494183178981583 0.259777692846495989 -0.829452260893599247
0.822679758071899414 0.534978747367858887 0.477621406316757202 167 121 79 0.78454900154418783 0.620037485801889332 0.0060316147497585116
0.506033360958099365 0.61413884162902832 0.469158083200454712 167 121 79 -0.25371857478489046 0.965325446367732209 -0.0614301831680705637
0.57557600736618042 0.18789951503276825 0.755825221538543701 167 121 79 0.209093128786205895 -0.259165114326750601 0.942928155805307089
0.406529277563095093 0.817051529884338379 0.395955264568328857 167 121 79 0.134753160477591227 0.901480894453489112 0.41130740654240322
0.209172472357749939 0.816210150718688965 0.233664289116859436 167 121 79 0.925957059849545572 0.368347006050956161 0.083210614996417645
0.150327429175376892 0.196617841720581055 0.421124249696731567 167 121 79 -0.596557806845674166 -0.770220929535035514 -0.225562636085113372
0.554629504680633545 0.200998380780220032 0.755109906196594238 167 121 79 -0.185099668448122784 0.131752668265587097 0.973847702233410439
0.413772463798522949 0.131552249193191528 0.274484932422637939 167 121 79 -0.991668990319677257 -0.0295400031927992995 -0.125379431525753482
0.518280208110809326 0.297273367643356323 0.14448864758014679 167 121 79 0.102381019157716247 -0.322008735692113357 -0.941184626443820616
0.0738140866160392761 0.512654244899749756 0.691286206245422363 167 121 79 -0.0796807598575481196 -0.736372072121865617 0.671868400735943117
0.277602344751358032 0.634747803211212158 0.596658408641815186 167 121 79 0.642902233777904342 0.418520726646668229 0.6414960008998698
0.290700465440750122 0.561604738235473633 0.599479913711547852 167 121 79 0.921541940680464244 -0.0834655531887084357 0.379201731269500686
0.849762380123138428 0.107171550393104553 0.352839112281799316 167 121 79 -0.0112550686016063498 -0.133726110328158204 -0.990954414111605009
0.23619455099105835 0.594770371913909912 0.348182022571563721 167 121 79 0.254339188341709155 0.184206332140924717 -0.9494101350169315
0.750994265079498291 0.236417829990386963 0.706526696681976318 167 121 79 0.599236561609047591 -0.289355820829836852 0.746450770099982841
0.46589195728302002 0.246004968881607056 0.721913993358612061 167 121 79 -0.79882897988334145 -0.289158781356264161 0.527503042705063874
0.183751687407493591 0.766074895858764648 0.622689127922058105 167 121 79 0.0123966311565149867 0.830615038264654104 0.556709063824702199
0.848913311958312988 0.174009412527084351 0.615709364414215088 167 121 79 0.847445629425365721 -0.347474578605566686 0.401369309228707227
0.601505100727081299 0.408671021461486816 0.738795161247253418 167 121 79 0.025166673313158347 0.70275295971241214 0.710988689199619772
0.734390199184417725 0.0173192750662565231 0.637071430683135986 167 121 79 0.563193929103668389 -0.810303290307845647 0.161929540038410258
0.152173414826393127 0.490757018327713013 0.646142840385437012 167 121 79 0.351643672345141434 -0.919030645463486895 0.178127483557674715
0.149661749601364136 0.88064044713973999 0.212667256593704224 167 121 79 0.156200252048043609 0.931355820588751993 0.328903962754449386
0.369389653205871582 0.00691039441153407097 0.62452995777130127 167 121 79 0.030423801080995027 -0.999199729635172118 0.0259671451026669831
0.166296765208244324 0.757226288318634033 0.636803686618804932 167 121 79 0.00191046429363691097 0.790939709998620288 0.611891105731633744
0.387484133243560791 0.923316061496734619 0.324173569679260254 167 121 79 -0.60897251516013795 0.681269611903652317 -0.406231697035303485
0.254714757204055786 0.383796125650405884 0.682992398738861084 167 121 79 0.353245903903158853 0.222671949309864031 0.908644338763074821
0.488757997751235962 0.904235601425170898 0.246508941054344177 167 121 79 -0.493428005627245592 -0.335617742920238826 -0.802427276393221423
0.0383285768330097198 0.710932016372680664 0.610649168491363525 167 121 79 -0.898351189466926825 0.375994710419065792 0.227141185433731324
0.632733523845672607 0.426618427038192749 0.701942563056945801 167 121 79 0.232902183934635049 0.888132369331646299 0.396203820354919689
0.83555150032043457 0.411548763513565063 0.315656810998916626 167 121 79 0.694628107889729951 0.0481997451400326474 -0.717752447782638581
0.606718182563781738 0.0374079383909702301 0.328894436359405518 167 121 79 0.0376034064370382309 -0.998855425595735258 0.0295604902241714922
0.101417176425457001 0.853892087936401367 0.169786214828491211 167 121 79 -0.739658170582094709 -0.516038183718071974 -0.431984240032089795
0.419959068298339844 0.266517668962478638 0.658583283424377441 167 121 79 -0.545138570563988734 -0.290780376782796002 0.786301921250041502
0.727424561977386475 0.463797718286514282 0.278313577175140381 167 121 79 0.218593092522829102 0.755349401905910156 -0.617789884136742518
0.173910051584243774 0.585825085639953613 0.337424665689468384 167 121 79 -0.081637787478681681 0.0737135393413760609 -0.993932384910237721
0.200479179620742798 0.354702144861221313 0.685659468173980713 167 121 79 -0.0925379629218384264 -0.112248869605716131 0.989361873477301201
0.186775356531143188 0.897503435611724854 0.0928161293268203735 167 121 79 0.721427838410849231 0.591807567438937032 0.359590985826755305
0.156898632645606995 0.641911029815673828 0.710338711738586426 167 121 79 0.649507403682012208 0.211889744848884454 0.730234803737897953
0.250104457139968872 0.815515398979187012 0.399370700120925903 167 121 79 -0.709418336164394314 0.582971353297631278 -0.396068208201656613
0.058214627206325531 0.696561217308044434 0.424405723810195923 167 121 79 -0.758682445381258952 0.559365847401063987 -0.333932322232518397
0.110915184020996094 0.914601981639862061 0.112756572663784027 167 121 79 -0.457432374846813372 0.762386158782374812 0.457736788273632178
0.599052190780639648 0.037313409149646759 0.606339335441589355 167 121 79 0.0345857830290515408 -0.997492809077950349 0.061740743841057058
0.697967171669006348 0.61498183012008667 0.536996424198150635 167 121 79 0.367576485294432931 0.893671338341066934 0.257369513513698633
0.380307137966156006 0.803640305995941162 0.419013798236846924 167 121 79 0.260822915674003564 0.728866660193040583 0.633028276081214702
0.358048349618911743 0.0683943554759025574 0.239375337958335876 167 121 79 -0.719040808003299836 0.529352891532698377 -0.450295272739935359
0.462226629257202148 0.0342046096920967102 0.606591105461120605 167 121 79 0.0347400210049286715 -0.997537001622218367 0.0609348942325431894
0.620238304138183594 0.517294764518737793 0.661088168621063232 167 121 79 0.172659677932403055 0.433128973790575411 0.884639998914474868
0.320156276226043701 0.00189120299182832241 0.430787742137908936 167 121 79 -0.0817470939762759835 -0.976970700423683391 0.197093031688315851
0.640089571475982666 0.190228313207626343 0.186326086521148682 167 121 79 0.427902620188531424 -0.371668993954902382 -0.823869835937898753
0.392892718315124512 0.270882070064544678 0.661823153495788574 167 121 79 0.252019789036887765 -0.0792026118339681645 0.964475490726685258
0.191462889313697815 0.0149931907653808594 0.503860294818878174 167 121 79 -0.662876957896082919 0.22218902480228675 0.715000822340676412
0.355783760547637939 0.265699148178100586 0.666962206363677979 167 121 79 0.273579238442893058 -0.151321871544952996 0.949871618422794772
0.984833657741546631 0.132851153612136841 0.50872957706451416 167 121 79 0.943821708339035781 -0.312470402373312806 0.107530602661029623
0.135317802429199219 0.683636128902435303 0.704258739948272705 167 121 79 0.182598004958129834 0.5078611159053813 0.841864036253272774
0.645093023777008057 0.366065710783004761 0.749917387962341309 167 121 79 0.191342877449987819 0.392544269237104948 0.899609304052746084
0.988663077354431152 0.141212880611419678 0.462635725736618042 167 121 79 0.918023274815893076 -0.375214619849864539 -0.128246855506188501
0.737671315670013428 0.59879148006439209 0.42270427942276001 167 121 79 0.488245719939209177 0.866058797424711035 -0.107509424537138312
0.818217873573303223 0.537121832370758057 0.419811874628067017 167 121 79 0.707715037517883339 0.700306995989312453 -0.0933249004258038667
0.382963448762893677 0.154196545481681824 0.324022889137268066 167 121 79 -0.119706203542850984 -0.251625283343535122 -0.960393222391559331
0.752468287944793701 0.594212472438812256 0.507232546806335449 167 121 79 0.491051189130261023 0.867907003248223896 0.0748743171350760711
0.683706581592559814 0.21839199960231781 0.741849839687347412 167 121 79 0.337834743706310336 -0.169154010448538644 0.925880449460980359
0.751776397228240967 0.289830565452575684 0.716963112354278564 167 121 79 0.520840566919169801 -0.0101716644954081125 0.853593369873917651
0.121073663234710693 0.821891665458679199 0.313249856233596802 167 121 79 -0.590425510996343328 0.683071894148211789 0.429895921578096696
0.337239682674407959 0.414539366960525513 0.254084885120391846 167 121 79 -0.0273933856131331928 0.314721052884042118 -0.948788839150319196
0.862827003002166748 0.141228929162025452 0.355932652950286865 167 121 79 -0.0986886244856331474 0.365943364325845011 -0.925389652796602014
0.44711729884147644 0.0144754862412810326 0.268844664096832275 167 121 79 0.0763535959993983798 -0.556567797563824573 0.827286174846959543
0.0422949008643627167 0.760763347148895264 0.470249593257904053 167 121 79 -0.549033417439901306 0.724507473380907929 -0.416714803612105944
0.758611381053924561 0.0500752069056034088 0.64883887767791748 167 121 79 0.733638750921326022 -0.390180454925427023 0.556357255493970637
0.186044767498970032 0.327446281909942627 0.678549766540527344 167 121 79 -0.348118965705753125 -0.209032785475890048 0.913848171367731776
0.192057341337203979 0.521896600723266602 0.669028162956237793 167 121 79 0.752409602740566452 -0.58717147512959722 0.298512057541928832
0.033294040709733963 0.404537498950958252 0.511004924774169922 167 121 79 -0.995593902368037909 -0.042598987154623652 0.0835350696473180221
0.235350623726844788 0.0907475501298904419 0.380314052104949951 167 121 79 -0.645266919222417967 0.696546605776728556 -0.313772893886849702
0.23432670533657074 0.0116290980949997902 0.685939371585845947 167 121 79 -0.0768045599062657236 -0.810733785121888428 0.580354882153618634
0.519998669624328613 0.547285914421081543 0.30243074893951416 167 121 79 -0.177371676939097334 0.749576882873326689 -0.63770979675846251
0.972372233867645264 0.151664122939109802 0.406584948301315308 167 121 79 0.824710512712778954 -0.291426485637408639 -0.484688738975906808
0.750321507453918457 0.156221985816955566 0.696158468723297119 167 121 79 0.690452568331646699 -0.233206505756048538 0.68475541367504833
0.232450962066650391 0.477547913789749146 0.280955463647842407 167 121 79 -0.299429771286485791 0.236209320469212003 -0.924417096872832578
0.152474924921989441 0.374806582927703857 0.290374845266342163 167 121 79 -0.198392399696080357 0.149261097322781977 -0.968690652669277008
0.41604846715927124 0.945058882236480713 0.326443523168563843 167 121 79 -0.510579368377743648 0.852320589248588889 -0.113394540123952184
0.536004543304443359 0.880097091197967529 0.232161208987236023 167 121 79 -0.354226570595103263 -0.617806758204394457 -0.702024462680189809
0.346095830202102661 0.600826084613800049 0.367630451917648315 167 121 79 0.187491656820737429 0.941602413316209197 -0.279699434857680396
0.401644915342330933 0.908055305480957031 0.297749996185302734 167 121 79 -0.577607103228285124 0.365204814720104576 -0.730065392691287007
0.169839262962341309 0.32263830304145813 0.669620275497436523 167 121 79 -0.470011803911458637 -0.264394861605719345 0.842130786363014416
0.164993748068809509 0.208050251007080078 0.56425940990447998 167 121 79 -0.488757173951809565 -0.749474091827159294 0.446547881632524846
0.419988483190536499 0.51974785327911377 0.618110954761505127 167 121 79 -0.0835640967947825219 0.653384317732403685 0.752400142921460069
0.17732587456703186 0.859694063663482666 0.0262656994163990021 167 121 79 -0.90052074273341931 -0.0113498072302649338 -0.434664898263807775
0.751658260822296143 0.551127195358276367 0.605339348316192627 167 121 79 0.511360153355748803 0.501336298204193009 0.697977585358513841
0.707029938697814941 0.0883576869964599609 0.677709817886352539 167 121 79 0.455342122070190647 -0.161584182372155105 0.875530755528175497
0.0652139633893966675 0.357395082712173462 0.581131815910339355 167 121 79 -0.84991016148106302 -0.194721881344156134 0.48962853913658444
0.867893040180206299 0.0391050130128860474 0.511951982975006104 167 121 79 0.402178098846903587 -0.892808381548570673 0.202844695874730724
0.905211985111236572 0.32687261700630188 0.459920734167098999 167 121 79 0.992141151774551644 0.0971429143379470283 0.0788618358231422123
0.0753480419516563416 0.515498638153076172 0.390526115894317627 167 121 79 -0.557163286146308279 -0.599779157897133541 -0.574311791906497726
0.842733323574066162 0.347416996955871582 0.289285719394683838 167 121 79 0.693132621206653865 0.224500272792315353 -0.684957514693699365
0.456456571817398071 0.389106124639511108 0.704720735549926758 167 121 79 -0.576565721230015149 0.685279898331515702 0.444930814897395221
0.0975485220551490784 0.529308736324310303 0.709277331829071045 167 121 79 -0.662469224412279956 -0.543116957799883893 0.515905511558843011
0.0347621403634548187 0.367491722106933594 0.453019142150878906 167 121 79 -0.970484313059995829 0.132000073490655262 -0.201832055687221013
0.512085258960723877 0.613939285278320312 0.441594183444976807 167 121 79 -0.246174264307296414 0.96174274297616047 -0.120204525395063752
0.0738651901483535767 0.639371991157531738 0.378269553184509277 167 121 79 -0.598280862884911002 0.303820289667991683 -0.741453464953629959
0.00690471334382891655 0.589964628219604492 0.474527537822723389 167 121 79 -0.973462096556574341 0.0841377845397661001 -0.212820064327635228
0.310439258813858032 0.456522643566131592 0.260859251022338867 167 121 79 -0.0599041300607060373 0.418749844444675057 -0.906123646628444579
0.724092721939086914 0.0217136628925800323 0.293098866939544678 167 121 79 0.691473916382214004 -0.665838787442697977 -0.280218721893953082
0.0665660277009010315 0.502047836780548096 0.670417189598083496 167 121 79 -0.221462333945873197 -0.928183412255095042 0.299048470749700757
0.850814521312713623 0.0732449814677238464 0.589279651641845703 167 121 79 0.0369691770958081659 -0.558912899461811663 0.828401865497688128
0.837115108966827393 0.516162872314453125 0.465936660766601562 167 121 79 0.801457514144454874 0.59714378105414978 -0.032941732949933078
0.207293838262557983 0.800398349761962891 0.273562043905258179 167 121 79 0.905627400978424535 0.33168914342720579 0.264237247051944957
0.555610537528991699 0.495132744312286377 0.255505025386810303 167 121 79 -0.183266248595546216 0.505131180029488314 -0.843359930923761714
0.647833168506622314 0.550726354122161865 0.29600822925567627 167 121 79 0.0937994651671767155 0.677459634505435226 -0.729554729921007228
0.158200278878211975 0.753918766975402832 0.11678864061832428 167 121 79 0.0322660829277639297 -0.862450775406038206 -0.505111433145223998
0.375953644514083862 0.605635762214660645 0.419710755348205566 167 121 79 0.32214265087929761 0.93713186986598529 -0.134193781398174755
0.191216722130775452 0.224514782428741455 0.333479881286621094 167 121 79 -0.398775773632929709 -0.766071563382292542 -0.50409546927191129
0.605949103832244873 0.129768490791320801 0.196340426802635193 167 121 79 0.298742243665909901 -0.166197667315064301 -0.939750715471123987
0.639933347702026367 0.225981920957565308 0.753318846225738525 167 121 79 0.17410770655703231 0.0461260277793794152 0.983645716749046883
0.394602417945861816 0.257165879011154175 0.234757184982299805 167 121 79 -0.880619911338622496 -0.387741846413503066 -0.272332209431429662
0.679126739501953125 0.0675839707255363464 0.682524502277374268 167 121 79 0.251601946971329038 0.106603902711846679 0.961941821633117145
0.84510427713394165 0.321629881858825684 0.28989863395690918 167 121 79 0.714249195126417047 -0.0697708033703064168 -0.696405142326165905
0.120788216590881348 0.852383613586425781 0.25410810112953186 167 121 79 -0.634898667227588476 0.719755964797041847 0.280811384191794078
0.761386454105377197 0.328430026769638062 0.707256197929382324 167 121 79 0.600796590598153823 0.313221884534947259 0.735483179803597342
0.71083986759185791 0.28081125020980835 0.205184727907180786 167 121 79 0.534620156811184244 -0.125392714752098622 -0.83573797031024244
0.769795835018157959 0.103736594319343567 0.262745976448059082 167 121 79 0.528852560682452677 -0.56740635891137281 -0.631161621873946754
0.557425618171691895 0.623585760593414307 0.442816704511642456 167 121 79 -0.186529789039991761 0.971684494225408368 -0.145037517500157642
0.85441887378692627 0.198200985789299011 0.617559731006622314 167 121 79 0.818346784426354334 -0.14405863174536615 0.556377256040089141
0.776552557945251465 0.0188503656536340714 0.397460281848907471 167 121 79 0.17808571446454885 -0.909527517701659516 -0.375559812609268129
0.902629077434539795 0.247588247060775757 0.414686322212219238 167 121 79 0.869386240350785267 0.00780537513951394708 -0.494071494024557023
0.529209673404693604 0.218084722757339478 0.157225161790847778 167 121 79 0.396940377544793832 -0.300986510487179781 -0.867090224359234329
0.31243249773979187 0.632464945316314697 0.520553886890411377 167 121 79 0.853774936809608476 0.490624174869042751 0.174230526343175984
0.283336609601974487 0.311236739158630371 0.258613169193267822 167 121 79 0.109086142641982825 -0.298691934796750158 -0.948094584717615096
0.216091111302375793 0.881726562976837158 0.00373780261725187302 167 121 79 0.980325831756553079 -0.10935086656905009 0.164327878253874071
0.511404514312744141 0.888800144195556641 0.28266414999961853 167 121 79 0.45768008135830851 0.427544618322343084 0.779573307952147743
0.517042934894561768 0.46669924259185791 0.250409960746765137 167 121 79 -0.216441622939746225 0.380065043196884444 -0.899279482029340604
0.555054664611816406 0.481308817863464355 0.675543308258056641 167 121 79 -0.110830936269201319 0.223916261440833986 0.968286120642061321
0.622166693210601807 0.17954765260219574 0.180850401520729065 167 121 79 0.287517722310225821 -0.233799813550588736 -0.928800950979944751
0.438241511583328247 0.59630286693572998 0.473430544137954712 167 121 79 -0.170833888348082968 0.984482308042810561 0.0401293875180685836
0.222948029637336731 0.00743803614750504494 0.659418046474456787 167 121 79 0.0354394869485186378 -0.999357145892304399 0.00541643044940942186
0.119650498032569885 0.278387784957885742 0.337115228176116943 167 121 79 -0.6297351556221219 -0.300712514478092774 -0.716244104624844113
0.53593677282333374 0.0764159262180328369 0.212765663862228394 167 121 79 -0.00522676815667011407 -0.679600210135845928 -0.733564063513167386
0.110635958611965179 0.790097713470458984 0.314999192953109741 167 121 79 -0.991993302445908665 -0.0590405512875588137 0.11164005198010786
0.520110189914703369 0.212795734405517578 0.741246163845062256 167 121 79 -0.0806006982423901897 -0.0502654201091723082 0.99547823430956428
0.355256825685501099 0.265560299158096313 0.279382526874542236 167 121 79 0.102760159008888088 -0.241777410714265617 -0.964875138755669881
0.0786955505609512329 0.389848828315734863 0.349641710519790649 167 121 79 -0.786602299953033435 0.197692137122254724 -0.584956956218689372
0.154152184724807739 0.375912785530090332 0.290201783180236816 167 121 79 -0.198392399696080357 0.149261097322781977 -0.968690652669277008
0.772778749465942383 0.404679745435714722 0.683725833892822266 167 121 79 0.580572383050924845 0.359318936400113753 0.730633704384667237
0.893489241600036621 0.235591456294059753 0.400802403688430786 167 121 79 0.88076165032057141 -0.0948837745782840775 -0.463956878003075945
0.835673034191131592 0.133352294564247131 0.607289373874664307 167 121 79 0.721978473265416754 -0.402630124026579495 0.562704245023688321
0.909787833690643311 0.265999466180801392 0.469321012496948242 167 121 79 0.961763110026433221 0.264140602647118694 -0.0723979435170632041
0.945425152778625488 0.249719500541687012 0.437785446643829346 167 121 79 -0.00119722465854673146 0.906853689233305116 -0.421443890662874687
0.628111064434051514 0.00934994034469127655 0.523274719715118408 167 121 79 -0.303857456120637082 -0.918356044940835448 0.253560290819602574
0.34943196177482605 0.51950526237487793 0.617570281028747559 167 121 79 0.0840366614189589772 0.583447369742950306 0.807791437363375553
0.230665609240531921 0.74559551477432251 0.386118978261947632 167 121 79 -0.120971570951394949 0.27557141582933159 -0.953638439766020141
0.201297342777252197 0.812044143676757812 0.10415300726890564 167 121 79 0.947807493190212513 -0.284899777504908247 -0.14315401716381948
0.278806746006011963 0.184575170278549194 0.605048716068267822 167 121 79 -0.821836355906827021 -0.360630119940843485 0.441056595802897189
0.816605567932128906 0.542197227478027344 0.477379083633422852 167 121 79 0.755647085806894436 0.654159951596876343 0.0327450673891550789
0.273042201995849609 0.497084885835647583 0.277532041072845459 167 121 79 -0.154876689094444991 0.404350094548579397 -0.901395702349249928
0.209584563970565796 0.76198190450668335 0.392052710056304932 167 121 79 0.482152990853729535 0.509463786643398531 -0.712723749786530636
0.722508430480957031 0.278305888175964355 0.73516237735748291 167 121 79 0.361743375182953908 -0.234304630737416503 0.902354182417440476
0.303862094879150391 0.652630746364593506 0.493421167135238647 167 121 79 0.872828240138506128 0.487736908343668396 0.0168395800445915872
0.110606104135513306 0.91526496410369873 0.111337222158908844 167 121 79 -0.466114406457435237 0.762088049172331305 0.449398670894277652
0.0289360824972391129 0.513246059417724609 0.458695888519287109 167 121 79 -0.653784334280094526 -0.706861418204604797 -0.270024035418531816
0.510237455368041992 0.21757371723651886 0.15104307234287262 167 121 79 0.214173435233241533 -0.144204394426002913 -0.966092558851698313
0.0694278180599212646 0.32148212194442749 0.579543650150299072 167 121 79 -0.887003020763531769 -0.163342505941351801 0.43190840106343048
0.19162122905254364 0.462120026350021362 0.292087137699127197 167 121 79 -0.537574916568720917 0.46642558496553671 -0.702467353523058446
0.602410852909088135 0.0141278048977255821 0.460317254066467285 167 121 79 -0.688420472736757105 -0.721421552562713675 -0.0750213050733166686
0.133962526917457581 0.943957388401031494 0.0452450215816497803 167 121 79 -0.596979525538232636 0.290593169099342963 -0.747777410838912138
0.535171270370483398 0.00843185745179653168 0.235514506697654724 167 121 79 0.398746341782941494 -0.577781395501788197 -0.712158699958603147
0.114572137594223022 0.264728188514709473 0.592324018478393555 167 121 79 -0.710425808342933229 -0.480714324288091355 0.514012557496928868
0.641033291816711426 0.0215111728757619858 0.555545330047607422 167 121 79 -0.402469967521971117 -0.648588284039243068 0.646027215409609168
0.174527868628501892 0.0702084675431251526 0.442825853824615479 167 121 79 -0.480646803074700146 0.74780445254885497 0.45800344042613661
0.870718300342559814 0.45562976598739624 0.404329091310501099 167 121 79 0.84800142613855789 0.450309974330359408 -0.279489728407973648
0.210626676678657532 0.487748026847839355 0.64041435718536377 167 121 79 0.0111635019951947505 0.508563662428991203 0.860952018105547001
0.865492165088653564 0.0376127585768699646 0.51013028621673584 167 121 79 0.35430259251712054 -0.916583629713722536 0.185321673520570024
0.161146089434623718 0.773622274398803711 0.607427597045898438 167 121 79 0.0048151738409480541 0.920588741916852582 0.390503754600167896
0.806547105312347412 0.456254899501800537 0.305350929498672485 167 121 79 0.599128893014718389 0.385620476703659454 -0.701670447932503771
0.272357821464538574 0.000640815531369298697 0.376429557800292969 167 121 79 0.0412052370492946712 -0.9990280981888916 0.0156520755428093995
0.426799237728118896 0.0531729124486446381 0.20487666130065918 167 121 79 0.120658495288153228 0.0795728915440890167 -0.989499713211737908
0.636932253837585449 0.563758015632629395 0.308205336332321167 167 121 79 -0.119607068503142039 0.618916994129144249 -0.776296273044144836
0.0357255339622497559 0.396666556596755981 0.451462090015411377 167 121 79 -0.98001225143464632 -0.167120109120977606 -0.107920601209351666
0.683194518089294434 0.204985469579696655 0.73779749870300293 167 121 79 0.438773896687780218 -0.201015868235504075 0.87582537546188266
0.182019010186195374 0.72134166955947876 0.272316813468933105 167 121 79 0.46854050838829131 -0.871622937388947694 -0.144025161054254502
0.825242221355438232 0.125322431325912476 0.341097652912139893 167 121 79 0.643000898822224221 -0.557504567737016843 -0.525108085127408586
0.212351173162460327 0.184438794851303101 0.555978894233703613 167 121 79 -0.229029185576934968 -0.882271054822387435 0.411270492470050431
0.371950536966323853 0.194951072335243225 0.660654425621032715 167 121 79 0.180773343896462491 -0.172725641434230109 0.96823904637626812
0.838007748126983643 0.0297596883028745651 0.524814188480377197 167 121 79 0.3560440936948438 -0.905565680915368265 0.230615265958918653
0.175330206751823425 0.625295937061309814 0.698566138744354248 167 121 79 0.695644561266312245 0.418070988423723144 0.584204838236564994
0.0163624156266450882 0.623121738433837891 0.577629745006561279 167 121 79 -0.936228371106028301 0.311312193748099542 0.162975934296751446
0.0192486215382814407 0.531739890575408936 0.551113426685333252 167 121 79 -0.710415297621936115 -0.660241488674294663 0.243703265341044001
0.154233872890472412 0.325268596410751343 0.660539746284484863 167 121 79 -0.474042851073854632 -0.236021486726362223 0.848278983088257887
0.103968068957328796 0.690114915370941162 0.363075375556945801 167 121 79 -0.486511692739520274 0.202222010711491595 -0.849948605041227156
0.497386544942855835 0.26483115553855896 0.751851558685302734 167 121 79 -0.217412975100528288 -0.176917514357136041 0.959912387341485318
0.152973368763923645 0.760075807571411133 0.107594996690750122 167 121 79 -0.577735103765300351 -0.557019373794012007 -0.596616767360274802
0.785632312297821045 0.327688157558441162 0.689730584621429443 167 121 79 0.739776590604935391 0.0120280085670359631 0.672745065387215568
0.343331992626190186 0.339560478925704956 0.256744742393493652 167 121 79 -0.0348420927719256326 -0.0166057625124170216 -0.999254860995258731
0.215787962079048157 0.783809900283813477 0.564850747585296631 167 121 79 0.197102902954880532 0.954359535714385143 0.224384318163686397
0.428195208311080933 0.0320190191268920898 0.354664057493209839 167 121 79 0.0464612047955905647 -0.998701180394173549 -0.0209119278935921728
0.31521490216255188 0.777110815048217773 0.349257916212081909 167 121 79 -0.255353872499391787 -0.454289508256008889 -0.85347257863863335
0.85987478494644165 0.154147401452064514 0.594665288925170898 167 121 79 0.0525456863454328155 0.303801756294250935 0.951285153736257993
0.462478101253509521 0.481022357940673828 0.255546808242797852 167 121 79 -0.195376504064035228 0.394437422518464531 -0.897912657988908403
0.115726552903652191 0.441272646188735962 0.327822566032409668 167 121 79 -0.493600525689070313 0.245822888508196807 -0.834223967843744085
0.457210391759872437 0.00636542681604623795 0.218390867114067078 167 121 79 0.0373023893637897605 -0.868402733818931516 -0.494454470748883157
0.932132482528686523 0.253225058317184448 0.450124979019165039 167 121 79 -0.119005867115123967 0.947508093128653917 -0.296759190334317469
0.65744394063949585 0.466348469257354736 0.261437475681304932 167 121 79 0.170207342494040847 0.177809624592718846 -0.969233304196318257
0.89757239818572998 0.184354886412620544 0.587639451026916504 167 121 79 -0.29944319659675761 0.5618097313449254 0.771170278069673976
0.816906213760375977 0.407116353511810303 0.64999312162399292 167 121 79 0.639845503989190156 0.390965813747058188 0.661621843280525201
0.513603031635284424 0.0342924445867538452 0.356492310762405396 167 121 79 0.0524318104248880923 -0.996924449072848717 -0.0582455843507968807
0.206755325198173523 0.771134138107299805 0.209424421191215515 167 121 79 0.948177064497185529 -0.306573615579807113 -0.0835037280115361186
0.384909927845001221 0.00152476923540234566 0.232545629143714905 167 121 79 0.0424839410549301827 -0.998991743740792804 -0.0145124322624264491
0.647820651531219482 0.00896899495273828506 0.671597778797149658 167 121 79 -0.054336624503290229 -0.995128757852392742 0.0822574405919748036
0.614965140819549561 0.599906504154205322 0.356147825717926025 167 121 79 -0.0781078405997040481 0.853920116534021223 -0.514509086232084911
0.217819735407829285 9.97270399238914251e-05 0.377636760473251343 167 121 79 -0.0433494419088471666 -0.998551323506333133 0.031876013081029414
0.589267432689666748 0.264832466840744019 0.77319025993347168 167 121 79 0.0345004077396055125 -0.103064601743138279 0.994076158920094599
0.71768563985824585 0.46391981840133667 0.674370050430297852 167 121 79 0.159764366745180519 0.690022981030285254 0.70593458108282936
0.551350712776184082 0.0410306379199028015 0.712730109691619873 167 121 79 0.287666015316810075 -0.0555990799403862646 0.956115581894538158
0.323176532983779907 0.0615135133266448975 0.291725754737854004 167 121 79 -0.73106720136245551 0.556537327058642894 -0.394723891704680196
0.291743189096450806 0.382094502449035645 0.680093586444854736 167 121 79 0.260140997689023823 -0.194625031634502205 0.945752482620388468
0.151082515716552734 0.492444366216659546 0.327412307262420654 167 121 79 -0.40843776450365793 0.329351475801757665 -0.851296774288766156
0.176226526498794556 0.0710303187370300293 0.407712072134017944 167 121 79 -0.509360957974237749 0.808750357125536112 -0.294065085212244837
0.141886442899703979 0.654638588428497314 0.345397055149078369 167 121 79 -0.241822217903896908 0.170387457064081177 -0.955243492206712674
0.412081092596054077 0.262489169836044312 0.18767063319683075 167 121 79 -0.762455905942627021 -0.383492590727189053 -0.521147219459680566
0.316053062677383423 0.556464254856109619 0.306970298290252686 167 121 79 0.00950347956235122852 0.588041219134017745 -0.808775128497152829
0.221680968999862671 0.00366745796054601669 0.52471005916595459 167 121 79 -0.132488663480344659 -0.991052689071157178 0.0161654425865943412
0.17460477352142334 0.0722561553120613098 0.435481995344161987 167 121 79 -0.618754900221595072 0.776553120112452477 0.118775523974339631
0.527465224266052246 0.339241266250610352 0.145926326513290405 167 121 79 0.106503197422568474 0.183045990840395328 -0.977318389357341055
0.896928727626800537 0.250970631837844849 0.404091805219650269 167 121 79 0.858645563850516713 -0.106770355494928817 -0.501326128251176173
0.128577694296836853 0.893602669239044189 0.169464260339736938 167 121 79 -0.314752746091791102 0.90011296112692607 0.3012098372214847
0.293199986219406128 0.000788136676419526339 0.424173086881637573 167 121 79 0.116238053656770687 -0.993221328098034428 0.000329079416450596255
0.844049334526062012 0.132413268089294434 0.599422991275787354 167 121 79 0.361989693091778697 -0.0529018063067558594 0.930679784343037331
0.47356879711151123 0.941744029521942139 0.298262655735015869 167 121 79 0.737571065306024676 -0.151540063643327061 0.658045995910857329
0.907616853713989258 0.0732028409838676453 0.399309873580932617 167 121 79 0.410682062171584483 -0.714568277783852124 -0.566332429051625397
0.354214340448379517 0.0527191571891307831 0.663687348365783691 167 121 79 0.348838876357665084 0.178113874620313556 0.920101562877305934
0.0341066829860210419 0.358142256736755371 0.45833587646484375 167 121 79 -0.979577667281099407 -0.0791040570279448046 -0.184851675474796112
0.750280678272247314 0.580016255378723145 0.566869914531707764 167 121 79 0.431069304393095376 0.798619901381217856 0.419982747178865357
