ply
format ascii 1.0
element vertex 346
property float x
property float y
property float z
property uchar red
property uchar green
property uchar blue
property double nx
property double ny
property double nz
end_header
0.315048456192016602 0.447261422872543335 0.0705954208970069885 32 200 85 -0.747288959831257538 0.57439212236338566 -0.332421939420414092
0.39044836163520813 0.441768616437911987 0.115988537669181824 21 163 75 -0.834366931392228506 0.278959198133228448 -0.407379682483859584
0.393195569515228271 0.449399232864379883 0.138912156224250793 7 120 85 -0.941083741651304595 -0.056567419070348568 -0.331139890925735592
0.263046711683273315 0.44000774621963501 0.0262620542198419571 108 159 5 -0.145181670438739863 0.248829489236486401 -0.956576258251708889
0.415351033210754395 0.498900353908538818 0.463299423456192017 100 202 28 -0.214072639373083184 0.590267281168775915 -0.776988813448688531
0.0458502136170864105 0.286715418100357056 0.480961024761199951 27 52 116 -0.784707774490988164 -0.584945194304331562 -0.08331188502935305
0.0285737980157136917 0.19964173436164856 0.668892502784729004 11 75 141 -0.906010324453891958 -0.404585816327572845 0.10615786806030969
0.594620048999786377 0.432603150606155396 0.559560298919677734 113 219 40 -0.108717656262403373 0.719165183435252375 -0.685869462594727253
0.673669993877410889 0.499835342168807983 0.435351818799972534 116 210 31 -0.086812260943548325 0.647914319556241569 -0.754037330895514168
0.106685206294059753 0.442219793796539307 0.348928838968276978 28 127 47 -0.774517130696412703 0.00236120674505180261 -0.629938832356230938
0.173126310110092163 0.384895682334899902 0.051590844988822937 36 204 85 -0.715223654401196507 0.606199777920326976 -0.332860948377823651
0.0294984485954046249 0.167145073413848877 0.626848161220550537 4 159 133 -0.962166588259950606 0.25397356020833306 0.0453597745852438727
0.123693197965621948 0.445362597703933716 0.712655305862426758 27 51 103 -0.780774746661965002 -0.594198962966372091 -0.19142396485011437
0.115860804915428162 0.44348028302192688 0.746584594249725342 19 64 110 -0.847660457014094981 -0.492046016333040459 -0.12974427593579696
0.0128461048007011414 0.151690110564231873 0.569650888442993164 3 152 114 -0.975613436872119433 0.19494615450352315 -0.0991324812958187529
0.018738284707069397 0.245958805084228516 0.626537561416625977 16 189 129 -0.872263435892602024 0.48864782821001107 0.0141679564429528781
0.0156462732702493668 0.172050982713699341 0.586166858673095703 2 146 143 -0.979935424898702445 0.149489740168754937 0.129404707189054502
0.0089280344545841217 0.119213767349720001 0.548709392547607422 1 130 140 -0.991930784587988557 0.0234708067704652024 0.0993356398567717402
0.052167404443025589 0.306308209896087646 0.300722897052764893 4 101 115 -0.968536981188402035 -0.205606436071693377 -0.0966909848630249646
0.267416030168533325 0.222000047564506531 0.134109392762184143 2 115 106 -0.978801638966447451 -0.0977792022089536417 -0.164628853878871828
0.360431194305419922 0.181905046105384827 0.00640412373468279839 130 0 133 0.0250101027848999014 -0.998442454454081307 0.0454558654836980658
0.353915810585021973 0.436111330986022949 0.872079253196716309 51 184 42 -0.594576207236213294 0.444176714791199245 -0.669637836412039666
0.380177468061447144 0.438862353563308716 0.8970947265625 50 208 68 -0.605924640435189676 0.638023517998270506 -0.465701138387607738
0.557102739810943604 0.0627400204539299011 0.0232345648109912872 161 112 245 0.269135513418327532 -0.121397915443596571 0.926777527600947559
0.00282073207199573517 0.24520362913608551 0.587279438972473145 3 153 118 -0.976102835593262608 0.204097897807055784 -0.0688680446397313961
0.0967486128211021423 0.428859740495681763 0.325241178274154663 27 114 49 -0.783754114910893085 -0.10426683425130856 -0.61030300963174855
0.0502686165273189545 0.242237970232963562 0.450506895780563354 16 179 163 -0.867312319119688868 0.406805748131181533 0.281072343426485682
0.135482773184776306 0.442392200231552124 0.693536758422851562 42 36 105 -0.66971401270754316 -0.717280276711374953 -0.171973282655482507
0.362836509943008423 0.429172396659851074 0.888505458831787109 51 213 72 -0.596134029322632264 0.674888849849396788 -0.430011920425491523
0.0369690991938114166 0.251130551099777222 0.341702759265899658 11 75 140 -0.905913095076137376 -0.405827831062360755 0.104565709777631355
0.713254988193511963 0.37860029935836792 0.570345759391784668 183 227 71 0.437417888584477943 0.786666328233812884 -0.435314124763443333
0.577394425868988037 0.54260331392288208 0.404735296964645386 138 238 66 0.0878977458424876623 0.874161982547088767 -0.477389848744540934
0.70148622989654541 0.423379778861999512 0.546633243560791016 182 216 54 0.429379461630894355 0.699704721407376828 -0.569108387876892108
0.172490105032920837 0.421988368034362793 0.576794087886810303 126 130 0 -0.00458782549909086956 0.0266172278010536889 -0.99931256464441609
0.0357030592858791351 0.244578078389167786 0.416793406009674072 5 149 155 -0.959547779986754334 0.174755326447011861 0.217091596880096827
0.0175297316163778305 0.278515517711639404 0.622600078582763672 15 185 113 -0.880938515263536948 0.454842041863175339 -0.112420747340428839
0.622519075870513916 0.501692354679107666 0.43945467472076416 152 144 4 0.195178777897898614 0.133307904918335218 -0.968215143645836496
0.380660414695739746 0.458712607622146606 0.516914963722229004 120 220 41 -0.0521865977973736683 0.732411851606073583 -0.676200634941704126
0.390724688768386841 0.530505657196044922 0.335817903280258179 31 170 59 -0.751494353102127866 0.335070175039394513 -0.532264014703478727
0.73624420166015625 0.393659472465515137 0.549237370491027832 187 225 71 0.46732526030685384 0.768880103082808741 -0.436230407863190672
0.308109283447265625 0.0996022894978523254 0.0104977414011955261 137 6 165 0.0821481111617310411 -0.949927046762227167 0.297706618127888234
0.0852545872330665588 0.417678892612457275 0.387448579072952271 32 156 47 -0.748260919408495373 0.224435730980977022 -0.623587295998676017
0.436565041542053223 0.38991972804069519 0.0317346900701522827 127 0 124 0.00352118223587938317 -0.999557309315308062 -0.0235125696795872585
0.410319417715072632 0.384466886520385742 0.564170479774475098 134 249 92 0.0552319892612720409 0.958526261423360726 -0.274707642938328167
0.438913255929946899 0.391501516103744507 0.564145922660827637 105 244 82 -0.174178124530711353 0.917737653665518849 -0.356431399623097556
0.195752888917922974 0.547685027122497559 0.818194568157196045 234 193 146 0.84214514515426897 0.516019319514476882 0.151127330022767792
0.126444846391677856 0.415885776281356812 0.694450318813323975 30 61 77 -0.757853024029247591 -0.517315949142234444 -0.392948424037251165
0.114892080426216125 0.421071171760559082 0.742120683193206787 9 90 98 -0.925918835411561503 -0.286650593400951226 -0.226656000445533135
0.32774651050567627 0.426432341337203979 0.846719920635223389 48 171 38 -0.623244593822930071 0.346846689541433051 -0.699624390581391919
0.579215586185455322 0.561135411262512207 0.394157350063323975 145 232 57 0.140308217624403486 0.821855349889798914 -0.5496181599951806
0.567184269428253174 0.575505495071411133 0.382697731256484985 141 206 28 0.109797944604472786 0.618964447543489227 -0.774539156668865858
0.397861212491989136 0.271898418664932251 0.00425451155751943588 148 1 130 0.167886161607168072 -0.984757954335177432 0.0222379017554907854
0.239524677395820618 0.42103111743927002 0.05319938063621521 87 188 23 -0.31503305016469263 0.481869315155013522 -0.817415709392382506
0.0872597023844718933 0.409230440855026245 0.31316712498664856 28 99 53 -0.779490207139335367 -0.222710056127877976 -0.580512816273682231
0.0796686485409736633 0.409800469875335693 0.348489761352539062 42 102 36 -0.667651367212348523 -0.199624433496282006 -0.716853054227120978
0.0774423182010650635 0.412045925855636597 0.3694133460521698 31 132 44 -0.753430497102460128 0.0420475153597248408 -0.654466261338000566
0.0938854962587356567 0.412074834108352661 0.434548497200012207 38 161 42 -0.6967435390336989 0.265104832455322681 -0.664895554250588772
0.777674615383148193 0.483483076095581055 0.381499141454696655 198 174 32 0.552998739431848296 0.365946890903299682 -0.74367734918311168
0.0251490827649831772 0.139382421970367432 0.610289335250854492 7 169 129 -0.9433242090399383 0.330979725998948204 0.0147785124535617651
0.344147920608520508 0.414804011583328247 0.87956005334854126 47 221 95 -0.626097579283873995 0.734088901150599327 -0.247291301160491361
0.00456784572452306747 0.278028994798660278 0.544800162315368652 3 113 100 -0.970477758259221002 -0.10802192799828858 -0.21088054661234068
0.0354329869151115417 0.298761576414108276 0.375951915979385376 2 135 106 -0.980605548657887738 0.0621967925117221654 -0.168202580728206263
0.416645169258117676 0.551217794418334961 0.0293525736778974533 153 138 3 0.205336555218139427 0.0876372863684733439 -0.974483622079143408
0.10156828910112381 0.406701177358627319 0.270697057247161865 36 85 48 -0.709963018313123029 -0.331809696391342168 -0.618723603907416209
0.0944819748401641846 0.407422393560409546 0.290431946516036987 31 90 52 -0.752017676663178203 -0.290677188824917554 -0.591266006250512843
0.096350647509098053 0.40416330099105835 0.456432133913040161 42 171 43 -0.667736300179732289 0.341552630197041074 -0.661207104719849337
0.109637513756752014 0.402673721313476562 0.478735089302062988 42 185 52 -0.66985042794318761 0.455572761065428988 -0.585540798550818309
0.46594703197479248 0.454748481512069702 0.52372366189956665 102 226 51 -0.193170719038457728 0.777379553623485986 -0.594450215376611357
0.11180579662322998 0.409353643655776978 0.714151263236999512 11 90 93 -0.906636418640677677 -0.291204247454680099 -0.270549068154050554
0.0359063968062400818 0.123358249664306641 0.655362904071807861 13 158 173 -0.897387666509930959 0.24544370921670744 0.364488715078167935
0.304832786321640015 0.406344830989837646 0.841452240943908691 37 182 56 -0.703757365638237098 0.431139387503338689 -0.55709453985268631
0.247353911399841309 0.395914614200592041 0.0995356291532516479 32 158 49 -0.745580953002942359 0.246436848693750932 -0.614957361414152803
0.123146794736385345 0.399551451206207275 0.238290563225746155 61 28 81 -0.516085371286031047 -0.774299425222573445 -0.357552257053411315
0.106726691126823425 0.397141218185424805 0.251338660717010498 47 48 68 -0.627328548694405796 -0.617062991679128592 -0.462613198874227693
0.0722677111625671387 0.396760880947113037 0.325970292091369629 33 108 43 -0.73623013709268148 -0.149101918851074822 -0.658933028033343859
0.0753681659698486328 0.399894416332244873 0.415190368890762329 35 147 42 -0.725100400792081268 0.158896523321957472 -0.66623089675150271
0.115578807890415192 0.400961637496948242 0.687889635562896729 50 137 26 -0.601117747823248894 0.0771309955744114983 -0.789855256400787686
0.107864610850811005 0.3998565673828125 0.738952457904815674 4 142 99 -0.963678230832890281 0.114356311343930983 -0.218549570394299897
0.0167836323380470276 0.133527249097824097 0.588804900646209717 7 169 126 -0.942829497760856672 0.330620417182703186 -0.00746394306969444532
0.0344678387045860291 0.238854408264160156 0.389624834060668945 2 144 141 -0.984282077282402912 0.1361866609483946 0.112233920610021132
0.326591849327087402 0.400691092014312744 0.86784815788269043 50 226 112 -0.604219497951028472 0.776779762306512023 -0.113873640652068175
0.0152747873216867447 0.166364148259162903 0.526022076606750488 10 85 101 -0.921324234439606315 -0.32966421375250432 -0.200238415737554631
0.230696022510528564 0.389717131853103638 0.083364337682723999 58 213 64 -0.541014143754891763 0.676276981941295485 -0.494198491128860828
0.248527973890304565 0.393711507320404053 0.132798001170158386 15 121 66 -0.875572193402295307 -0.0501125472986616582 -0.479343685871173708
0.142658665776252747 0.392226636409759521 0.224670365452766418 59 30 83 -0.535581139152966124 -0.763747679147323444 -0.346396952937023883
0.082250744104385376 0.392069071531295776 0.296215921640396118 22 78 74 -0.820250632180748118 -0.384966312287241319 -0.418805910133609793
0.0659160614013671875 0.394255936145782471 0.348381400108337402 23 103 58 -0.818608574691242596 -0.186846599512683897 -0.541652114746848157
0.0633564963936805725 0.392342507839202881 0.374944359064102173 19 144 62 -0.847150688845493827 0.136276516078766452 -0.511187088784474275
0.406576544046401978 0.351544380187988281 0.574066579341888428 144 250 99 0.130744923001675284 0.964060473286993291 -0.220017592598410028
0.215755864977836609 0.157098814845085144 0.0851484388113021851 81 245 112 -0.360990463489013091 0.922791773458089715 -0.113807189951964038
0.65086817741394043 0.51076960563659668 0.408296108245849609 131 208 31 0.0341542306031488163 0.63550680558355066 -0.751502992270926984
0.194350019097328186 0.385978937149047852 0.0665572881698608398 78 230 71 -0.38574168514655971 0.807084035238732955 -0.442219894411705727
0.455602705478668213 0.397864371538162231 0.0324075520038604736 132 0 123 0.0407284514697514588 -0.998631367012922877 -0.0311108793343031209
0.165951535105705261 0.385193437337875366 0.198072731494903564 53 46 62 -0.579538928746449633 -0.632725452321084569 -0.506474692309233143
0.0653301998972892761 0.388337016105651855 0.395444214344024658 20 145 60 -0.83933229141339849 0.143879412193427703 -0.523510371820343323
0.0664658769965171814 0.38408932089805603 0.425871878862380981 17 157 72 -0.862677516236241226 0.233046906802525822 -0.433230596700849291
0.0869468897581100464 0.388497531414031982 0.46635061502456665 38 178 51 -0.696689421377863827 0.399072221293318208 -0.594233797961908783
0.591900169849395752 0.527913331985473633 0.410048067569732666 157 240 76 0.233806629938055899 0.887013050217332344 -0.396811371642617816
0.360203027725219727 0.452698647975921631 0.0954526513814926147 91 243 90 -0.284116273666146113 0.909196722452791484 -0.293559428768834119
0.797288954257965088 0.457823723554611206 0.393084883689880371 207 161 35 0.627903294839266213 0.268090169109794108 -0.720386188009878303
0.472736150026321411 0.475190252065658569 0.0283575728535652161 115 38 215 -0.0934608976147047743 -0.699189266602308401 0.689303360804267573
0.105113714933395386 0.388942599296569824 0.711047053337097168 20 128 61 -0.837424927315828183 0.00887574786005029814 -0.519238368539156392
0.112158827483654022 0.389144957065582275 0.756260991096496582 10 177 131 -0.917417275049949854 0.395174665919733048 0.0312754893360058794
0.268371075391769409 0.388160824775695801 0.800444126129150391 37 161 43 -0.705607316982770461 0.265180467881587223 -0.655700983415277605
0.0851593241095542908 0.381423443555831909 0.272286742925643921 15 79 92 -0.876323832398511859 -0.37841602116161388 -0.274914745776805081
0.0596468038856983185 0.379608839750289917 0.332067877054214478 11 113 76 -0.906765230727787919 -0.10784463095573571 -0.403131519747405132
0.101506792008876801 0.621380627155303955 0.871088027954101562 29 196 164 -0.770771551106733899 0.54321913282228107 0.293029178497209664
0.288056403398513794 0.383609622716903687 0.836444854736328125 34 210 103 -0.73125511056515391 0.654337757207042348 -0.186923169044659554
0.180334821343421936 0.368037819862365723 0.067144639790058136 69 226 72 -0.455892384683447505 0.776443579316263621 -0.427833909379212507
0.183680146932601929 0.376559257507324219 0.181093409657478333 80 11 106 -0.372087804273345868 -0.906961956800082625 -0.163891599400995736
0.139492973685264587 0.373978376388549805 0.215754613280296326 52 47 62 -0.588116603654081693 -0.623972137012677841 -0.513690849271456362
0.10731438547372818 0.374715507030487061 0.242619782686233521 41 34 116 -0.671363844123382014 -0.730397647732234923 -0.0891621909879023455
0.0763750895857810974 0.371638774871826172 0.288346648216247559 13 88 86 -0.895077985618900174 -0.30198312464221011 -0.324780933043035458
0.0671933665871620178 0.374504357576370239 0.308011114597320557 20 61 105 -0.836598354629835006 -0.518589899948157074 -0.175777899481265321
0.0675471052527427673 0.372679650783538818 0.445100933313369751 17 165 76 -0.865664503997395252 0.297703793372472436 -0.401533616805889615
0.0797752663493156433 0.37022864818572998 0.478150874376296997 32 166 52 -0.745457998693213941 0.304582315523988179 -0.584814916943322438
0.0609300285577774048 0.385161906480789185 0.546365201473236084 67 86 23 -0.472522353201359491 -0.323204542740957335 -0.81956746710783257
0.0554108992218971252 0.373630613088607788 0.604319751262664795 34 169 50 -0.727655642586864992 0.325723789795349772 -0.601990867112333849
0.0907903611660003662 0.371835321187973022 0.715918660163879395 36 166 47 -0.712420781780799262 0.304911628138293533 -0.631194518399907145
0.101426146924495697 0.375167220830917358 0.734380781650543213 24 169 66 -0.806732855940865079 0.330085740420595686 -0.48176340297399145
0.231708794832229614 0.363214790821075439 0.158961027860641479 25 64 89 -0.803042106265934419 -0.490691234480408633 -0.299784885362313736
0.151582494378089905 0.366753935813903809 0.19939132034778595 50 37 81 -0.602350526942614595 -0.708421768871709046 -0.360998490904300806
0.0552300214767456055 0.365967065095901489 0.371575325727462769 0 121 114 -0.993142114005918453 -0.0432569214319642459 -0.105575809308977475
0.0581397898495197296 0.366628050804138184 0.416678398847579956 17 151 68 -0.865465500330730331 0.186829999348423481 -0.464520280089346982
0.0702036395668983459 0.366231858730316162 0.50125354528427124 46 63 53 -0.637978148607691198 -0.50287286447855073 -0.582598308982302471
0.0420396067202091217 0.367393732070922852 0.556077063083648682 14 128 68 -0.882751706898765587 0.0090307753434566429 -0.464054766917692763
0.081344209611415863 0.368767321109771729 0.679973363876342773 17 147 66 -0.863093187279889928 0.158131878851899277 -0.478000219407284876
0.255844056606292725 0.366403460502624512 0.80623096227645874 33 205 92 -0.735012453799062104 0.614671107581573617 -0.272117619255734633
0.229661107063293457 0.361762046813964844 0.0999759659171104431 14 177 98 -0.882991349048782515 0.390579616323804224 -0.227313951701967998
0.234874770045280457 0.361208111047744751 0.122180789709091187 3 143 103 -0.972901949122498833 0.12528141633091705 -0.185769971707473336
0.117262564599514008 0.359993815422058105 0.228838279843330383 34 48 93 -0.731921624746257438 -0.622883919960793397 -0.269627945889713505
0.0933463424444198608 0.360407173633575439 0.254205942153930664 44 45 76 -0.6475949359976505 -0.643391360823598601 -0.403355912317592824
0.0546810030937194824 0.358041465282440186 0.320051074028015137 22 65 91 -0.823984656961497475 -0.489262014460467354 -0.281734116837748516
0.049969404935836792 0.36389961838722229 0.52799612283706665 40 71 52 -0.680680878065943129 -0.43752936918415275 -0.586569926686143495
0.0390676595270633698 0.358584821224212646 0.572859525680541992 7 132 85 -0.944168863517510171 0.0371853676416900036 -0.326976393915716312
0.062006775289773941 0.361591905355453491 0.651126682758331299 47 160 34 -0.629588461499272389 0.255667219907300236 -0.732263806458517297
0.00977259688079357147 0.147720456123352051 0.544859230518341064 0 124 118 -0.996951534479824764 -0.0204037008269105646 -0.0685741016294986183
0.0756684616208076477 0.357007712125778198 0.702097177505493164 18 143 63 -0.853608262725245259 0.128954621249449009 -0.498052684677442903
0.16318906843662262 0.344876796007156372 0.0644601285457611084 32 211 134 -0.743359551193449875 0.661543663849634367 0.054546496220878149
0.214236080646514893 0.346655488014221191 0.0895779654383659363 67 237 112 -0.470903362713953388 0.865323963269044594 -0.117536643226207826
0.0995793417096138 0.345116198062896729 0.240008428692817688 48 33 91 -0.616772336855490932 -0.734957343233567983 -0.278853916645160793
0.0787106528878211975 0.347615063190460205 0.260998457670211792 29 55 90 -0.767159284406871089 -0.566941998642929712 -0.286649642724847054
0.0646630227565765381 0.350643008947372437 0.304313957691192627 16 75 92 -0.866937760795912782 -0.408980772268785486 -0.271011517240503874
0.0448987148702144623 0.347214162349700928 0.352455288171768188 14 150 74 -0.888273978311288293 0.179155006215262258 -0.416595614185081398
0.0480041764676570892 0.350028276443481445 0.384178727865219116 14 106 72 -0.882893722619098709 -0.160931647266388977 -0.432413124486830669
0.0561215095221996307 0.349718213081359863 0.438908815383911133 8 154 90 -0.933511081899969675 0.211057156519075528 -0.288499543476668285
0.0592324249446392059 0.347842693328857422 0.493432164192199707 41 66 55 -0.674836065168153754 -0.476118387392385545 -0.562321093993542132
0.0358997955918312073 0.349013447761535645 0.531064629554748535 30 89 54 -0.757817987963065987 -0.298915682014027517 -0.575507937908116052
0.0405039303004741669 0.352165967226028442 0.603456676006317139 14 142 70 -0.885496376210787695 0.11453889759737157 -0.443826427320259675
0.0535418763756752014 0.347417861223220825 0.662282466888427734 22 170 70 -0.821178623615517744 0.338172509988741821 -0.44982549376254588
0.078889504075050354 0.352472484111785889 0.725573360919952393 35 156 44 -0.718528575828051297 0.22937830735531195 -0.653162546933407695
0.289392024278640747 0.360192418098449707 0.834947049617767334 52 223 164 -0.588184396329192394 0.753937984439462028 0.286632729726870483
0.18309725821018219 0.342893689870834351 0.0781310200691223145 75 241 107 -0.40737222199170664 0.897087890621667938 -0.154630596333489523
0.235788196325302124 0.343397259712219238 0.134036451578140259 1 126 143 -0.990529807491202119 -0.00702569441471467826 0.122111044379315192
0.063087761402130127 0.342265516519546509 0.471274614334106445 11 149 79 -0.907968349145700016 0.17252334488128529 -0.377389510213198109
0.518170535564422607 0.528401374816894531 0.409854531288146973 110 241 74 -0.135372011325336716 0.890694533063836946 -0.413403364062120859
0.484611570835113525 0.423412144184112549 0.550273656845092773 136 221 42 0.0739165377687593939 0.737848965037354532 -0.670342578301231451
0.634986042976379395 0.397961199283599854 0.588750600814819336 140 239 67 0.104897308232476227 0.875944590554009306 -0.470760442286487391
0.853624880313873291 0.385592818260192871 0.194496914744377136 233 119 58 0.830748379251099234 -0.0625543141298429139 -0.544269476700501187
0.732483327388763428 0.427260696887969971 0.527768731117248535 184 211 50 0.446062674492601507 0.657413457267290724 -0.605347833176423378
0.748759150505065918 0.514444053173065186 0.337480008602142334 183 143 14 0.441641176827234805 0.123651400037354309 -0.887731795716894978
0.423688799142837524 0.444342881441116333 0.531848132610321045 116 229 51 -0.0832059322281835101 0.798891459407707449 -0.594602449625528884
0.69022071361541748 0.407929748296737671 0.565427482128143311 168 229 63 0.325227393616604132 0.801513173058810757 -0.499048300513373233
0.765007853507995605 0.477746516466140747 0.412660777568817139 197 171 30 0.547028634694534555 0.34158643987179782 -0.761870590895808886
0.691829025745391846 0.470631808042526245 0.492333292961120605 180 167 18 0.413480175594707067 0.313695119063922778 -0.85414389980965244
0.715450525283813477 0.397307813167572021 0.558936893939971924 185 225 71 0.456182372455866014 0.771688965818172479 -0.442866810321994153
0.766012310981750488 0.433314293622970581 0.490153104066848755 174 206 38 0.366829918187056681 0.61692074383045381 -0.6959774061945182
0.747443675994873047 0.429891228675842285 0.509609341621398926 210 190 54 0.653575147691236369 0.493934771505604608 -0.571064240430945502
0.909849464893341064 0.385859102010726929 0.181593805551528931 152 187 18 0.196092282136931972 0.467747878901760838 -0.856607704861061081
0.764251887798309326 0.450848281383514404 0.46660962700843811 184 185 29 0.443268914761671962 0.458409512922203444 -0.770082788923365902
0.524275243282318115 0.426834315061569214 0.0356750562787055969 129 0 123 0.0119400034260948029 -0.999451169369460546 -0.0295280889102894628
0.351612061262130737 0.524127602577209473 0.0657194331288337708 42 203 71 -0.66983828192853212 0.596139301938174437 -0.440098251584875921
0.818859457969665527 0.45398905873298645 0.367209643125534058 216 184 56 0.701371280390979512 0.447944112615214829 -0.554314779094646548
0.565059125423431396 0.511224269866943359 0.425586342811584473 142 156 6 0.120233877422255997 0.228225021265663797 -0.950712940578141597
0.862954914569854736 0.370467990636825562 0.213700905442237854 236 128 62 0.854499578985953079 0.0112249561117465646 -0.511780164710076146
0.613359689712524414 0.524911046028137207 0.406148314476013184 151 241 76 0.189994796307675129 0.8954394952810385 -0.398264147127928014
0.816930592060089111 0.443389207124710083 0.384019076824188232 214 178 49 0.681172590505198627 0.39997779468584449 -0.613018285918270234
0.759770393371582031 0.471768200397491455 0.436564534902572632 179 180 23 0.408743029546837056 0.414533442292750909 -0.812223132331461484
0.739648282527923584 0.474863141775131226 0.445296406745910645 161 198 27 0.269291286364536475 0.557446854063958108 -0.78426198402895364
0.611571729183197021 0.56800001859664917 0.376834601163864136 149 185 16 0.173874969043841254 0.455457460058382058 -0.867454589083230143
0.80151212215423584 0.407108992338180542 0.481685489416122437 221 186 64 0.738107372367445613 0.460158506518837385 -0.490740222845598928
0.742814302444458008 0.453340858221054077 0.476034224033355713 165 193 25 0.29827528652581603 0.516933270439588366 -0.802009985798899372
0.449989885091781616 0.487641364336013794 0.486775875091552734 110 211 32 -0.136817856223569567 0.65528019136083282 -0.742213503437189281
0.630009949207305908 0.558807849884033203 0.381489872932434082 178 207 43 0.402844548071604969 0.630554464277583993 -0.658462656630555476
0.772921442985534668 0.411167711019515991 0.50713503360748291 186 214 55 0.460386906821074637 0.681254468977066097 -0.568441819517592317
0.75615382194519043 0.498845040798187256 0.375506758689880371 183 172 22 0.44139942699879553 0.352299498681197143 -0.825045765722407287
0.783759772777557373 0.46453288197517395 0.408619433641433716 202 153 27 0.586190270911810529 0.206883393525009396 -0.781751649621489353
0.718737244606018066 0.533394396305084229 0.326722174882888794 188 158 19 0.474916095230947244 0.2441041577500771 -0.845339048699925377
0.647553145885467529 0.371711045503616333 0.599290251731872559 150 242 78 0.183497836941917791 0.903662348935561743 -0.386552178018595094
0.206798464059829712 0.369607537984848022 0.0795034095644950867 75 234 83 -0.411522305814699063 0.842151638535065805 -0.346552792639799323
0.331005483865737915 0.152608141303062439 0.00781198358163237572 127 0 128 -0.00386487462214835098 -0.999721958563291935 0.00970669422284720085
0.704937994480133057 0.440258175134658813 0.531559765338897705 182 213 50 0.429383592789287505 0.672735661352801717 -0.60089062002309257
0.819625258445739746 0.41477435827255249 0.445666193962097168 232 183 81 0.819994786893518679 0.441126973852294491 -0.363580837766328879
0.797924339771270752 0.439744144678115845 0.448243230581283569 200 188 42 0.569842399289556267 0.475776355656140293 -0.669087345556379831
0.808309197425842285 0.387417733669281006 0.486030161380767822 229 193 88 0.801041296330807562 0.515171714983959639 -0.30281593722899891
0.871278822422027588 0.386367559432983398 0.177603155374526978 110 196 21 -0.134128124656680781 0.540564589631585157 -0.82881695098265229
0.585575342178344727 0.418026268482208252 0.572642683982849121 136 222 43 0.0714083740034310299 0.747638299557345842 -0.657953107563453488
0.585642814636230469 0.484333515167236328 0.50508040189743042 90 188 21 -0.286316895708596642 0.477777722281915063 -0.830021393413283515
0.467909783124923706 0.434251517057418823 0.54184955358505249 139 218 38 0.0967684577270884194 0.713143054428123868 -0.694261061198238716
0.778243899345397949 0.461847186088562012 0.435190260410308838 195 169 28 0.530139724355768616 0.332995701429135815 -0.777945413307385092
0.554545104503631592 0.369327008724212646 0.59924471378326416 110 248 91 -0.134312452975420493 0.950209894875326144 -0.280244982077381688
0.800659656524658203 0.472840011119842529 0.367789238691329956 206 177 40 0.617060168658865704 0.394153435553473042 -0.679396212377209263
0.581912517547607422 0.395029067993164062 0.589852452278137207 144 237 65 0.130932640023474045 0.86103235977783199 -0.489594256091253954
0.87808382511138916 0.348166286945343018 0.22963966429233551 190 177 32 0.496333759776012684 0.393413042892751363 -0.741441772264856636
0.452247798442840576 0.58181452751159668 0.37012907862663269 91 215 42 -0.283865716031459936 0.687633265163179352 -0.665030759521028747
0.742690920829772949 0.489312916994094849 0.420801997184753418 189 178 28 0.489748876623811391 0.397314164978852746 -0.775670565940609125
0.205513849854469299 0.400603771209716797 0.692887663841247559 232 143 57 0.82329436587597371 0.126861917746241559 -0.549270231599053971
0.684280693531036377 0.372688442468643188 0.58771967887878418 172 233 73 0.354185920604195514 0.833537027222114313 -0.423727649851797894
0.560900449752807617 0.393324792385101318 0.591699719429016113 120 244 77 -0.0537668193151454865 0.918691835258309109 -0.390289432155967342
0.876034855842590332 0.351299315690994263 0.258785098791122437 247 124 85 0.944390664623488973 -0.0203186694637044196 -0.327091119636744643
0.702020227909088135 0.458936333656311035 0.507463335990905762 164 184 19 0.290947118746345268 0.444202946912917618 -0.847252648149128595
0.625495254993438721 0.509522974491119385 0.413789689540863037 152 211 35 0.194251996086517664 0.655938477034074374 -0.722265998721102975
0.671761631965637207 0.542189717292785645 0.374024331569671631 182 204 42 0.431355583955975508 0.60167984874465863 -0.670137272989304256
0.409134417772293091 0.426189780235290527 0.544225215911865234 119 229 51 -0.0601159344868463785 0.800053084235920142 -0.596121013914345799
0.770993828773498535 0.494521200656890869 0.188718333840370178 205 138 28 0.614914108526016356 0.0863009724433703163 -0.778331352878212313
0.674735546112060547 0.431950747966766357 0.55575263500213623 168 226 57 0.319551436683906953 0.772652862675362595 -0.546638609452670954
0.457699447870254517 0.410078853368759155 0.559642255306243896 110 238 67 -0.13342712497439424 0.87110922121242762 -0.470698601497113178
0.319112956523895264 0.359752118587493896 0.59546959400177002 147 250 102 0.155651443754476704 0.9684690971139156 -0.19321618599484891
0.208634957671165466 0.347120195627212524 0.760001182556152344 83 230 71 -0.345577999571992311 0.808452566387729332 -0.439479047026442915
0.540024280548095703 0.528584301471710205 0.411796510219573975 119 241 72 -0.0598078292637758135 0.898025541410964578 -0.432325545556642932
0.518040299415588379 0.586892783641815186 0.37469753623008728 133 207 28 0.0481263114449062002 0.627243094017350789 -0.773798978864813081
0.712002813816070557 0.463009297847747803 0.490639358758926392 170 169 15 0.341075145793999113 0.329482610038818846 -0.879363516669927847
0.219198688864707947 0.36891058087348938 0.738776028156280518 100 173 11 -0.210110356078469285 0.360463535544143232 -0.906663579703264833
0.509056806564331055 0.47663453221321106 0.501992642879486084 122 194 19 -0.0398164506210743063 0.527899873517283513 -0.846894357240114637
0.842839300632476807 0.227083325386047363 0.0450510755181312561 178 16 165 0.396906014241745764 -0.868023884095303844 0.296735132432725646
0.379102110862731934 0.54781949520111084 0.0604931861162185669 100 190 20 -0.212751456441193199 0.495773622358635091 -0.836438369679873062
0.757715761661529541 0.509604990482330322 0.173182219266891479 211 132 32 0.657196447818427121 0.0386347463526783841 -0.747276046057463894
0.227071374654769897 0.358268290758132935 0.767590045928955078 43 187 54 -0.662090632060546413 0.469221132426709264 -0.568845604337055444
0.218262374401092529 0.384214311838150024 0.696813583374023438 201 148 27 0.579343447145914681 0.167628648035810235 -0.78693776393219661
0.220349401235580444 0.402054101228713989 0.662577807903289795 167 172 15 0.316534055721740204 0.353675061041445193 -0.878728704277715211
0.516146540641784668 0.4597511887550354 0.529035806655883789 118 206 27 -0.0690523637244399024 0.617324546485824355 -0.782705797968415884
0.494257837533950806 0.455902814865112305 0.530902445316314697 110 224 46 -0.136590529901755353 0.759167571421044851 -0.633522773807794315
0.469774365425109863 0.503531038761138916 0.466610193252563477 131 183 13 0.028624473425023389 0.436056210690401125 -0.892436028492429534
0.581735193729400635 0.502723455429077148 0.463374972343444824 167 159 10 0.315645332176288207 0.24863775703286084 -0.915186608619113162
0.530700325965881348 0.513623833656311035 0.440384954214096069 139 167 7 0.0943104238080008095 0.314311406655529479 -0.944457729275401725
0.434849560260772705 0.472939968109130859 0.497769832611083984 100 206 31 -0.211216179233864043 0.618401719184094922 -0.755824815661355842
0.468549877405166626 0.520701706409454346 0.405409872531890869 111 190 22 -0.129157623669866273 0.495797622882217182 -0.820619044263902975
0.411605894565582275 0.476797401905059814 0.492464125156402588 135 189 16 0.0607527617468264225 0.482846729460234547 -0.870110658031777007
0.933877825736999512 0.339532434940338135 0.232303857803344727 158 227 54 0.242921195044111693 0.7815938724533944 -0.57212401814573477
0.618978977203369141 0.372980058193206787 0.601857662200927734 128 244 75 0.00796523081278399658 0.91405098141352803 -0.404256243738519538
0.605735898017883301 0.449197560548782349 0.546723604202270508 107 219 42 -0.157036757453662301 0.725302627090571805 -0.669689449835766615
0.490484476089477539 0.588130950927734375 0.370579034090042114 119 211 32 -0.0597958932839298685 0.659138573282411322 -0.7470787331283959
0.881679713726043701 0.360835552215576172 0.213802173733711243 120 210 30 -0.0562539545226155013 0.648899213792554219 -0.757719314659086707
0.484094768762588501 0.452817738056182861 0.0347003825008869171 126 0 133 -0.00608319474949403638 -0.99813120986837145 0.0461119678381762821
0.50315093994140625 0.505747616291046143 0.455660521984100342 110 187 16 -0.135436453919316691 0.466872837442171118 -0.872516216640761066
0.93080514669418335 0.358302950859069824 0.214109122753143311 168 194 27 0.324653493039901875 0.526982980447207927 -0.784229401562290818
0.929205656051635742 0.380795508623123169 0.171059787273406982 210 150 33 0.649765219829377738 0.178003949490678215 -0.734467597564209429
0.202007681131362915 0.431509643793106079 0.527817249298095703 84 194 28 -0.340988857073133311 0.527351896517424645 -0.77726614068496569
0.212787017226219177 0.445979893207550049 0.516786932945251465 82 200 33 -0.356627327759398094 0.572294291937803123 -0.738015861060753786
0.88503795862197876 0.378935337066650391 0.191224187612533569 111 203 26 -0.12923669379476932 0.593273289800941406 -0.79448842551295229
0.282077372074127197 0.395779222249984741 0.816090404987335205 37 170 48 -0.704897464439594668 0.335136592351320095 -0.62329376318376295
0.495390743017196655 0.408316493034362793 0.563273966312408447 108 223 46 -0.147388617867677096 0.752660208367326611 -0.63578600155612186
0.240843713283538818 0.388167053461074829 0.667694807052612305 206 166 35 0.617762304105271109 0.305484332510748802 -0.71998846226467772
0.47688746452331543 0.492031455039978027 0.00579111231490969658 121 18 191 -0.0434732653463314467 -0.854202875986419974 0.501247897000557607
0.939119160175323486 0.364549934864044189 0.180739879608154297 220 154 45 0.732824505993173059 0.210076295173092786 -0.639619586070623303
0.110353663563728333 0.501478195190429688 0.817947030067443848 19 186 158 -0.849776487197733688 0.46007093861691617 0.245917619960521083
0.406070083379745483 0.455471515655517578 0.521034419536590576 130 217 36 0.0251053160881185011 0.702591830169592813 -0.710776663318509638
0.699077010154724121 0.3583049476146698 0.58727109432220459 180 237 90 0.415197404830594419 0.860507728581155762 -0.293116829588450423
0.58515632152557373 0.446774482727050781 0.544623672962188721 116 222 42 -0.0840385030706091163 0.74266901107857608 -0.663077853259744443
0.640737533569335938 0.471313238143920898 0.521570324897766113 160 201 28 0.261235253245440058 0.577279336005227295 -0.772894707314882634
0.228318467736244202 0.426828205585479736 0.547077655792236328 108 204 27 -0.1476700820597594 0.602032946811439817 -0.782852384422875081
0.53162229061126709 0.39688524603843689 0.584628283977508545 98 240 75 -0.230719615073235795 0.882369301153387076 -0.409484761646490503
0.546038269996643066 0.446750402450561523 0.547429859638214111 125 216 36 -0.0152712778338025545 0.698530421190178386 -0.712980201126814483
0.704432547092437744 0.472910404205322266 0.468352407217025757 171 158 11 0.342587250102094787 0.241875000600980883 -0.907107809005112453
0.44205397367477417 0.432445019483566284 0.54351729154586792 109 230 55 -0.137833651064728668 0.811741468471955496 -0.565896435973461509
0.468382775783538818 0.56090843677520752 0.387389123439788818 98 242 80 -0.226304268996564861 0.902510895235569155 -0.365526505126559265
0.47753867506980896 0.365136533975601196 0.581131875514984131 97 244 87 -0.233359034885595618 0.919344162764620165 -0.316286154091778071
0.383048087358474731 0.440649896860122681 0.533724129199981689 125 224 45 -0.0172197495106809484 0.763729848435405145 -0.644024066716527677
0.297905057668685913 0.411281943321228027 0.815408408641815186 46 154 32 -0.633018126184036856 0.208011405796264537 -0.745470117605070426
0.602741837501525879 0.501262784004211426 0.450649946928024292 147 175 11 0.156209553345016738 0.375052803383950639 -0.913575167903204477
0.237306416034698486 0.441747933626174927 0.534254252910614014 89 209 38 -0.299527741409713277 0.646207927855096731 -0.701481977793777856
0.241954460740089417 0.455020993947982788 0.5198708176612854 97 197 25 -0.236227304624046508 0.550276137595794079 -0.800069086468642165
0.832526445388793945 0.42817416787147522 0.380124509334564209 213 182 50 0.670591196378954368 0.433749508043992593 -0.601632715376819394
0.459278136491775513 0.598154544830322266 0.346305817365646362 100 172 11 -0.21178800491266947 0.352663873318622478 -0.9113993834955052
0.769269049167633057 0.388356268405914307 0.528094947338104248 201 215 72 0.577028918674208358 0.690766001619311787 -0.433764997773176786
0.640629768371582031 0.425871372222900391 0.566691398620605469 138 230 53 0.087836714326499532 0.808737319337250238 -0.580932113050011578
0.255091637372970581 0.38119015097618103 0.64455568790435791 190 182 31 0.497221089645911496 0.429600725795950211 -0.751786652785863319
0.285582840442657471 0.348294496536254883 0.632334351539611816 239 171 86 0.882052541674759105 0.34558197869595908 -0.319487476425916572
0.553447246551513672 0.543999195098876953 0.405368387699127197 132 239 66 0.0370440065006121255 0.877914345363184356 -0.476220888201702053
0.431040525436401367 0.181695103645324707 0.0315513722598552704 134 0 135 0.0543453804052811407 -0.996675879111387331 0.0590889798116802645
0.251492977142333984 0.406101584434509277 0.576975405216217041 141 189 17 0.11245667014164229 0.485321421232385086 -0.862091092965699524
0.252894312143325806 0.424250632524490356 0.556809663772583008 93 217 43 -0.265502992450233455 0.705989876627764801 -0.656316344178652589
0.25721055269241333 0.448292136192321777 0.535162806510925293 102 206 30 -0.193252445793037131 0.622061923223125035 -0.75760515473344181
0.669404208660125732 0.526193857192993164 0.390164077281951904 176 219 54 0.384127538143311575 0.718246279823659961 -0.57624130601098944
0.555232763290405273 0.460211127996444702 0.530519783496856689 133 201 24 0.0490775466153363649 0.581687013332949032 -0.810578187637964409
0.2644156813621521 0.387264490127563477 0.624481081962585449 209 167 39 0.645571317759854324 0.317277532938125439 -0.692167904105947085
0.26470029354095459 0.394670039415359497 0.593443095684051514 165 180 20 0.301213145694901652 0.416184942364787203 -0.835802743246847335
0.445787549018859863 0.56481778621673584 0.37797170877456665 79 233 75 -0.375444370845781084 0.829489310553338743 -0.410315748434392447
0.501642346382141113 0.491068184375762939 0.479986280202865601 124 189 16 -0.0246420038375922967 0.48626937818464766 -0.869968829405113442
0.6524086594581604 0.446613937616348267 0.551268577575683594 148 221 43 0.166283025899926828 0.736215798624679119 -0.655800365948116748
0.82288515567779541 0.465982317924499512 0.33637198805809021 216 147 38 0.698750370975350421 0.158556545725055953 -0.696702581384120556
0.763704657554626465 0.488533496856689453 0.394505679607391357 195 165 26 0.531604785618136066 0.299043757064366922 -0.789879634829596444
0.480979472398757935 0.508009195327758789 0.449454367160797119 141 162 5 0.10798224111736543 0.276926775631902045 -0.953497554229179034
0.548466801643371582 0.412715226411819458 0.580999016761779785 109 235 62 -0.1388648299239994 0.846846565763603953 -0.510309660350246053
0.70752793550491333 0.522521018981933594 0.368265867233276367 166 186 21 0.30399835897663241 0.462546384279088896 -0.831534028013759863
0.521018922328948975 0.421503037214279175 0.562759041786193848 77 212 46 -0.391241900048626023 0.665752394646002665 -0.633338911131936078
0.278108656406402588 0.367397576570510864 0.630053102970123291 224 177 62 0.76305098479611666 0.391894084828669165 -0.511311842189327126
0.275364816188812256 0.425496280193328857 0.564843356609344482 96 222 48 -0.243953806458688138 0.74617758168961501 -0.618138902258567935
0.441691130399703979 0.519511997699737549 0.403501570224761963 128 165 6 0.00570422332436915092 0.299370018584625974 -0.948382577943961413
0.500283598899841309 0.43796125054359436 0.543853700160980225 95 234 66 -0.25002378455490093 0.842305286062016156 -0.477268559140884063
0.520170509815216064 0.360553652048110962 0.59474492073059082 101 247 93 -0.206860612806361921 0.94003240347811845 -0.270486403922650886
0.556745290756225586 0.58687746524810791 0.367950946092605591 140 184 14 0.0986201163278057624 0.447993249984884212 -0.886748622728684044
0.28336864709854126 0.380962967872619629 0.598067343235015869 186 208 51 0.466317668900126048 0.639078468647896969 -0.59988997698635993
0.28773808479309082 0.439081281423568726 0.555321335792541504 115 214 35 -0.0937029497663280919 0.681841348972005434 -0.724466455956559119
0.292501449584960938 0.452712088823318481 0.538538038730621338 116 197 21 -0.0850038272987687638 0.551582403259763376 -0.829104903400269988
0.286556720733642578 0.463269203901290894 0.515198111534118652 127 178 10 0.00127833853092362837 0.399667504740524704 -0.915186455999878579
0.440136492252349854 0.533204913139343262 0.387722760438919067 80 235 81 -0.367695316552237639 0.846875311914385032 -0.36407673209316227
0.291379600763320923 0.362879008054733276 0.608033478260040283 216 192 64 0.699520758209144944 0.511970217058023369 -0.493915723678751917
0.784558594226837158 0.431909799575805664 0.472337603569030762 203 180 40 0.595695497619530778 0.419188595186439361 -0.684572919457428153
0.407352745532989502 0.54845196008682251 0.0637706592679023743 131 183 13 0.0350522211277743967 0.43773519975254227 -0.894690436976581571
0.187481135129928589 0.339399844408035278 0.760280072689056396 130 251 99 0.0250683781078557821 0.974350613449006087 -0.218302556702571704
0.377698749303817749 0.0710478052496910095 0.0138876531273126602 66 30 178 -0.475998472164784081 -0.760376984607284756 0.396898078471706661
0.51417994499206543 0.38023713231086731 0.586751103401184082 93 242 83 -0.269646779430353867 0.89831286623126605 -0.34573818243536103
0.650213420391082764 0.479955941438674927 0.504197299480438232 164 196 26 0.288803245948369813 0.541475931990707871 -0.789162810703884166
0.301026850938796997 0.39446491003036499 0.589239418506622314 133 245 81 0.0436787145813319899 0.926676189127481065 -0.363051633781606098
0.3047981858253479 0.429066836833953857 0.566598594188690186 124 218 38 -0.0261858351518875487 0.717583876146671296 -0.695373462878649207
0.300416886806488037 0.469427585601806641 0.499355316162109375 131 177 10 0.0322627238070285483 0.393407394287157652 -0.914099292343814707
0.473343074321746826 0.488419234752655029 0.489069849252700806 118 185 14 -0.0713195699321981236 0.45335849046846155 -0.88635072721969077
0.657379388809204102 0.461492568254470825 0.532577455043792725 143 189 17 0.123378356766604691 0.489460773575984831 -0.859580132401834174
0.629009783267974854 0.485659182071685791 0.505626380443572998 151 185 16 0.190141900390514484 0.452345064107209094 -0.870774081406514799
0.898272037506103516 0.321376413106918335 0.243299946188926697 129 247 85 0.0155098564495790292 0.941710011769180788 -0.329509174768626845
0.393672853708267212 0.455470472574234009 0.894885778427124023 50 190 48 -0.603930267910561924 0.493642872232259666 -0.622733713775550202
0.899807929992675781 0.340049505233764648 0.234256893396377563 120 232 56 -0.057784257586583454 0.823540425860045833 -0.559602111082842191
0.2995452880859375 0.341708213090896606 0.612826824188232422 226 198 88 0.775697249721605253 0.553041783715390256 -0.302942222546782602
0.310112357139587402 0.461527734994888306 0.524987876415252686 136 183 13 0.0731072944763195842 0.43741228908864116 -0.893578263693051711
0.601988315582275391 0.49204021692276001 0.49345812201499939 115 150 3 -0.0951289510600746846 0.182869406242934351 -0.973016582055331813
0.382395923137664795 0.408595025539398193 0.559499442577362061 180 224 64 0.411887395136280698 0.763614128694005245 -0.49174908964374342
0.954389572143554688 0.325886726379394531 0.227537557482719421 224 195 81 0.757699543989960311 0.536641745192403707 -0.363535294602861825
0.579733729362487793 0.58349686861038208 0.364788979291915894 159 176 14 0.249060370302363054 0.386914058235801495 -0.886211561601777831
0.421403437852859497 0.477996796369552612 0.898105800151824951 50 164 32 -0.601028392851041149 0.288097650560086072 -0.744098225908183752
0.48238864541053772 0.339017361402511597 0.589984297752380371 97 248 101 -0.237180884972635564 0.949195414812496585 -0.205310016060128886
0.830148935317993164 0.316298961639404297 0.0280724447220563889 176 10 112 0.380709449460277405 -0.91716679924410327 -0.115703717850337395
0.321217358112335205 0.444762706756591797 0.549481391906738281 134 205 26 0.0553772872814977113 0.610399246232224302 -0.788807719865654233
0.319099068641662598 0.472862422466278076 0.492180079221725464 115 192 18 -0.0950371988365832365 0.510415539226386716 -0.852338413775312276
0.677186012268066406 0.395816445350646973 0.577003717422485352 171 227 62 0.348286725386735441 0.787268496936223139 -0.508700391411727737
0.321570336818695068 0.383111894130706787 0.589564383029937744 143 250 98 0.124536665983072226 0.964823309523780148 -0.23133691800135503
0.326887667179107666 0.412041366100311279 0.57850193977355957 145 238 68 0.140550863364790946 0.872234889793695567 -0.465607393035666117
0.733606874942779541 0.448685109615325928 0.497022241353988647 193 170 27 0.518092922720629012 0.340697208283167408 -0.784302574313119893
0.576646208763122559 0.377417117357254028 0.598733603954315186 122 245 80 -0.0424253855466250052 0.927418145721350839 -0.371084134141629995
0.913801014423370361 0.351818114519119263 0.22535298764705658 129 221 41 0.0191966221027501938 0.73975207165934842 -0.671906584490882364
0.736577212810516357 0.506891727447509766 0.375575155019760132 165 171 14 0.298887741388238481 0.345984404921209299 -0.889263848230513521
0.330390661954879761 0.4616374671459198 0.517011702060699463 139 182 13 0.0912467248184867241 0.430213506028486847 -0.896711589263534448
0.65421593189239502 0.497965335845947266 0.433004438877105713 104 190 19 -0.180486735849948676 0.492297673276246517 -0.845963303631266816
0.476229816675186157 0.397813886404037476 0.56828230619430542 112 240 69 -0.116539834019073973 0.883387939139727463 -0.452349116088914593
0.808878123760223389 0.443880230188369751 0.418615430593490601 214 151 37 0.682584644137369301 0.190524165050874883 -0.704185221731551514
0.5637473464012146 0.5275534987449646 0.413033038377761841 132 245 79 0.0411790915790195555 0.926288986257883362 -0.373263886663937727
